# .PCD v0.7 - Point Cloud Data file format
VERSION 0.7
FIELDS x y z intensity ring time
SIZE 4 4 4 4 2 4
TYPE F F F F U F
COUNT 1 1 1 1 1 1
WIDTH 951
HEIGHT 1
VIEWPOINT 0 0 0 1 0 0 0
POINTS 951
DATA ascii
-0.39881217 0.1024672 0.076889031 107 3 0.017666861
-0.40679872 0.10334834 0.088591166 106 3 0.01769001
-0.40577775 0.10207298 0.099557273 106 3 0.017713159
-0.53146929 0.13023724 0.1311257 63 3 0.017736308
-6.1966543 1.414711 1.3949023 236 3 0.017782606
-6.1634741 1.391417 1.5607456 242 3 0.017805755
-6.1514688 1.3729452 1.7325343 241 3 0.017828904
-5.5897775 1.2338105 1.7393088 232 3 0.017852053
-5.1134801 1.1160359 1.7442554 227 3 0.017875202
-4.7059755 1.0154088 1.7484847 222 3 0.017898351
-4.3654966 0.93102801 1.7570863 215 3 0.0179215
-4.0601921 0.85571539 1.7623581 213 3 0.017944649
-4.1663609 0.86688858 1.9382268 186 3 0.017967798
-4.1964197 0.86190426 2.0867865 184 3 0.017990947
-4.6218019 0.9361642 2.4459372 197 3 0.018014096
-4.7963753 0.95825636 2.698694 145 3 0.018037245
-4.3321223 0.85428303 2.5923531 173 3 0.018060394
-4.1862254 0.81414068 2.6563399 160 3 0.018083543
-3.3509822 0.64364725 2.259095 172 3 0.018106692
-3.1876857 0.60355508 2.2728717 173 3 0.01812984
-3.2359726 0.6032753 2.4345345 172 3 0.018152989
-3.243746 0.59522218 2.5733738 172 3 0.018176138
-3.2327757 0.58362031 2.702811 173 3 0.018199287
-3.1453912 0.55850494 2.7709541 172 3 0.018222436
-2.978981 0.52011698 2.7652984 172 3 0.018245585
-2.8907614 0.49580064 2.8255768 175 3 0.018268734
-2.7392914 0.46133819 2.8200583 176 3 0.018291883
-1.7164977 0.28590509 1.8766959 172 3 0.018315032
-2.4556463 0.39780197 2.8047831 178 3 0.018338181
-2.3790369 0.37728047 2.862056 179 3 0.01836133
-2.2076986 0.3426196 2.8005726 172 3 0.018384479
-2.0838559 0.31598678 2.7882669 173 3 0.018407628
-1.9929396 0.29475799 2.8141358 172 3 0.018430777
-1.9267489 0.27739981 2.8732755 175 3 0.018453926
-1.7874955 0.25027454 2.8200881 175 3 0.018477075
-1.6382257 0.22265628 2.738482 169 3 0.018500224
-1.559877 0.20501877 2.7651925 174 3 0.018523373
-1.5276942 0.1933378 2.8756523 180 3 0.018546522
-1.4384185 0.17480771 2.8828592 172 3 0.018569671
-1.3424623 0.15595582 2.8719287 172 3 0.01859282
-1.2337999 0.13628429 2.825907 177 3 0.018615969
-1.1520442 0.11997315 2.8333604 177 3 0.018639117
-1.0706861 0.10407509 2.8383815 176 3 0.018662266
-1.0101615 0.090286069 2.8984759 177 3 0.018685415
-0.92801309 0.07491985 2.8982863 177 3 0.018708564
-0.66359866 0.048460588 2.2804196 219 3 0.018731713
-0.75010139 0.044751424 2.8328383 178 3 0.018754862
-0.67369521 0.031113524 2.8339458 177 3 0.018778011
-0.59957802 0.017892562 2.8417206 177 3 0.01880116
-0.5385704 0.0049394872 2.9172604 176 3 0.018824309
-0.46413648 -0.0080205947 2.9302137 177 3 0.018847458
-0.38707337 -0.020572579 2.9243422 182 3 0.018870607
-0.30475307 -0.031986833 2.8627007 179 3 0.018893756
-0.23092888 -0.043642633 2.8605208 179 3 0.018916905
-0.15787958 -0.0551521 2.8653572 179 3 0.018940054
-0.067620412 -0.051858813 2.3057067 219 3 0.018963203
-0.0086635919 -0.058785122 2.2445099 222 3 0.018986352
0.046937015 -0.06474185 2.1738114 174 3 0.019009501
0.10849938 -0.077448122 2.3033819 169 3 0.01903265
0.17039825 -0.087283015 2.343354 164 3 0.019055799
0.23180495 -0.095978901 2.3547294 164 3 0.019078948
0.2940838 -0.1045744 2.3654196 164 3 0.019102097
0.43817016 -0.14022204 2.9045465 175 3 0.019125246
0.52187181 -0.1520486 2.9437976 175 3 0.019148394
0.60068351 -0.16180387 2.9453592 176 3 0.019171543
0.67224222 -0.16927418 2.9117019 174 3 0.019194692
0.74452996 -0.17678779 2.884011 177 3 0.019217841
0.82811284 -0.18674788 2.8966651 177 3 0.01924099
0.91018075 -0.1959085 2.8982885 177 3 0.019264139
1.0162055 -0.20977367 2.9644334 177 3 0.019287288
0.69528633 -0.13551457 1.8846934 111 3 0.019310437
0.71982563 -0.13507548 1.8083172 164 3 0.019333586
0.77292967 -0.14022836 1.8050245 171 3 0.019356735
0.83740932 -0.14722961 1.8235987 169 3 0.019379884
1.4474071 -0.25097686 2.9220493 184 3 0.019403033
1.1700534 -0.19531266 2.2256229 184 3 0.019426182
1.1917614 -0.19307117 2.1324153 163 3 0.019449331
1.2373246 -0.19486013 2.0856562 164 3 0.01947248
1.2996023 -0.19919679 2.0664651 164 3 0.019495629
1.3673532 -0.20412511 2.0536411 164 3 0.019518778
1.4347653 -0.20870748 2.0378313 164 3 0.019541927
1.5185863 -0.21540077 2.0412664 171 3 0.019565076
1.6141846 -0.2233645 2.0548501 168 3 0.019588225
1.7405115 -0.2351132 2.098954 160 3 0.019611374
2.5827932 -0.34314135 2.9355204 174 3 0.019634522
2.6040571 -0.337253 2.8091097 177 3 0.019657671
2.6135137 -0.32995197 2.6765823 179 3 0.01968082
2.4796312 -0.3048104 2.4134395 180 3 0.019703969
2.5603998 -0.30699855 2.3646705 178 3 0.019727118
2.7407894 -0.32077074 2.3996382 186 3 0.019750267
2.9649041 -0.33872589 2.4593744 190 3 0.019773416
3.3398693 -0.37266389 2.6214447 173 3 0.019796565
3.3504746 -0.36427349 2.491524 175 3 0.019819714
3.3492358 -0.35470545 2.357794 177 3 0.019842863
3.3575187 -0.34629157 2.2351408 185 3 0.019866012
3.3617129 -0.33754754 2.1137068 175 3 0.019889161
3.3317213 -0.32549539 1.9761291 202 3 0.01991231
3.3432403 -0.31774259 1.8669016 212 3 0.019935459
3.3442545 -0.30903915 1.7548184 213 3 0.019958608
3.3408191 -0.30001521 1.6435571 214 3 0.019981757
3.3493483 -0.29216149 1.5406147 215 3 0.020004906
3.3474329 -0.28343678 1.435308 218 3 0.020028055
3.3506927 -0.27522811 1.3343991 209 3 0.020051204
3.3509808 -0.26682502 1.2343161 209 3 0.020074353
3.356873 -0.25892243 1.1379241 210 3 0.020097502
3.0732088 -0.22885713 0.95691085 212 3 0.020120651
3.2400548 -0.23364705 0.91451252 204 3 0.020143799
3.1341896 -0.21810359 0.79841816 196 3 0.020166948
3.0420773 -0.20406674 0.69226456 207 3 0.020190097
3.3606112 -0.21794988 0.66837043 213 3 0.020213246
3.3072758 -0.20636716 0.56909591 210 3 0.020236395
3.2500775 -0.19482788 0.47294939 198 3 0.020259544
3.1037621 -0.17827643 0.37110314 132 3 0.020282693
3.3395777 -0.18428925 0.3076053 212 3 0.020305842
3.3626966 -0.17753385 0.22089054 207 3 0.020328991
3.3496037 -0.1687807 0.13227697 187 3 0.02035214
3.1484025 -0.1506974 0.044492964 182 3 0.020375289
-0.70616299 -0.098692074 0.046832234 208 4 0.022087574
-0.68782926 -0.097636752 0.064957276 201 4 0.022110723
-0.68682438 -0.099164136 0.083127171 175 4 0.022133872
-0.69420844 -0.10200275 0.10200576 166 4 0.022157021
-0.68339676 -0.1019879 0.11937511 148 4 0.02218017
-0.70739222 -0.10754491 0.14103848 123 4 0.022203319
-5.1310487 -0.83456725 0.88492197 222 4 0.022226468
-5.1394916 -0.8487047 1.02714 221 4 0.022249617
-5.1353641 -0.86081332 1.1685853 223 4 0.022272766
-5.1025033 -0.86803514 1.3044405 226 4 0.022295915
-5.0994172 -0.88033748 1.4485976 235 4 0.022319064
-5.0932717 -0.89215833 1.5938467 235 4 0.022342212
-5.0821347 -0.90313596 1.7395264 229 4 0.022365361
-4.6592851 -0.83938277 1.7376201 223 4 0.02238851
-4.3047976 -0.78613329 1.7398863 217 4 0.022411659
-4.0101089 -0.74230522 1.748548 205 4 0.022434808
-3.7263916 -0.6991061 1.7465469 210 4 0.022457957
-3.4768922 -0.66107506 1.7459414 202 4 0.022481106
-3.3534396 -0.64635664 1.7977649 210 4 0.022504255
-3.8211749 -0.74781138 2.173924 175 4 0.022527404
-4.5024371 -0.89469618 2.7133334 145 4 0.022550553
-4.3633332 -0.87898368 2.7905097 157 4 0.022573702
-4.0365586 -0.82403862 2.7374952 160 4 0.022596851
-3.8077388 -0.78785068 2.7339945 161 4 0.02262
-3.6177061 -0.75872737 2.7468603 166 4 0.022643149
-2.8292699 -0.60028398 2.2773836 189 4 0.022666298
-2.6694765 -0.57405937 2.2689097 176 4 0.022689447
-2.6818876 -0.58502364 2.4027834 180 4 0.022712596
-2.6891615 -0.59509927 2.5388894 178 4 0.022735745
-2.6848521 -0.60279423 2.6708338 176 4 0.022758894
-2.6391287 -0.60114551 2.7667258 176 4 0.022782043
-2.508126 -0.57949972 2.7725854 179 4 0.022805192
-2.4475868 -0.57392466 2.8523862 175 4 0.022828341
-2.3286912 -0.55414206 2.8630562 176 4 0.022851489
-1.4336646 -0.34392086 1.8755773 165 4 0.022874638
-1.582062 -0.38637662 2.1790299 248 4 0.022897787
-1.9358741 -0.48215222 2.8061154 174 4 0.022920936
-1.8250835 -0.46190336 2.7995386 177 4 0.022944085
-1.7250105 -0.4438757 2.8032897 177 4 0.022967234
-1.6351607 -0.42806804 2.8190186 175 4 0.022990383
-1.5328099 -0.40846014 2.8084779 178 4 0.023013532
-1.4446021 -0.39220387 2.8181891 172 4 0.023036681
-1.3570434 -0.37570986 2.8251309 173 4 0.02305983
-1.299033 -0.36730048 2.8925915 173 4 0.023082979
-1.2148635 -0.35113397 2.9031012 174 4 0.023106128
-1.1274931 -0.3336072 2.9018552 174 4 0.023129277
-1.044521 -0.31698471 2.907279 175 4 0.023152426
-0.96213454 -0.30014166 2.9102576 175 4 0.023175575
-0.86989725 -0.27963665 2.8765631 177 4 0.023198724
-0.78255659 -0.26012555 2.8485692 176 4 0.023221873
-0.70389169 -0.24305627 2.8439651 177 4 0.023245022
-0.62391096 -0.22504391 2.827368 178 4 0.023268171
-0.55401474 -0.21042421 2.8524568 177 4 0.02329132
-0.47898835 -0.19350563 2.8501494 178 4 0.023314469
-0.40568042 -0.17692377 2.8536618 177 4 0.023337618
-0.33260366 -0.16008775 2.8551767 179 4 0.023360766
-0.25898761 -0.14253548 2.8457556 172 4 0.023383915
-0.14613171 -0.09639556 2.2293105 220 4 0.023407064
-0.086083554 -0.078767873 2.1280482 160 4 0.023430213
-0.032943778 -0.065835901 2.1300139 159 4 0.023453362
0.022647997 -0.059393879 2.3674421 210 4 0.023476511
0.080804251 -0.043943487 2.3404701 166 4 0.02349966
0.13318689 -0.027512757 2.2411065 175 4 0.023522809
0.18051267 -0.012149665 2.1405194 158 4 0.023545958
0.23361018 0.001902492 2.1353025 160 4 0.023569107
0.33361366 0.01772001 2.4694076 204 4 0.023592256
0.46468607 0.039404016 2.8852878 175 4 0.023615405
0.53971338 0.059632558 2.8899667 176 4 0.023638554
0.61329526 0.080077596 2.8837276 176 4 0.023661703
0.50566965 0.075977229 2.1305602 174 4 0.023684852
0.76705599 0.12289897 2.8901877 177 4 0.023708001
0.8458215 0.1451987 2.8938851 177 4 0.02373115
0.92797112 0.16849151 2.9037855 178 4 0.023754299
1.0084262 0.19192083 2.9036255 177 4 0.023777448
1.08904 0.21577719 2.9000983 178 4 0.023800597
1.1700521 0.24009925 2.8941224 177 4 0.023823746
1.2622504 0.26711088 2.9102869 176 4 0.023846895
1.3559283 0.29495159 2.9233508 183 4 0.023870043
1.4590361 0.32536194 2.949244 182 4 0.023893192
1.5679702 0.35767069 2.9784634 183 4 0.023916341
1.6703678 0.3891134 2.9881353 181 4 0.02393949
1.7746762 0.4215458 2.9950356 181 4 0.023962639
1.8941667 0.45814207 3.0199585 177 4 0.023985788
2.0065174 0.49367127 3.0263495 186 4 0.024008937
1.4025923 0.35299072 2.019367 177 4 0.024032086
2.2134199 0.56201333 2.9973085 180 4 0.024055235
2.3179092 0.59719747 2.9776437 179 4 0.024078384
2.4391701 0.63721609 2.9739225 179 4 0.024101533
2.573318 0.68122935 2.9788294 176 4 0.024124682
2.7091413 0.7263875 2.9783161 182 4 0.024147831
2.8162985 0.76453394 2.9412897 179 4 0.02417098
2.8368783 0.77959615 2.8159733 181 4 0.024194129
2.8459024 0.7914024 2.6847584 175 4 0.024217278
2.7797689 0.78211868 2.4927745 185 4 0.024240427
2.7916501 0.79425311 2.3775558 184 4 0.024263576
2.8134358 0.80913639 2.2741723 187 4 0.024286725
2.8116713 0.81722987 2.1558855 189 4 0.024309874
2.8194256 0.82796121 2.0487006 179 4 0.024333023
2.8100395 0.83358419 1.9332249 218 4 0.024356171
2.8107758 0.84205812 1.8283647 218 4 0.02437932
2.8082125 0.8494547 1.7246513 220 4 0.024402469
2.8100007 0.85807168 1.6264596 221 4 0.024425618
2.8165028 0.86806548 1.5332686 223 4 0.024448767
2.8202789 0.87718719 1.4406919 224 4 0.024471916
2.8204961 0.88516104 1.3484104 216 4 0.024495065
2.8189368 0.89252353 1.2573383 218 4 0.024518214
2.8228042 0.90154868 1.1703259 219 4 0.024541363
2.8314598 0.91208249 1.0864581 220 4 0.024564512
2.830611 0.91956139 1.000319 222 4 0.024587661
2.8347244 0.92861605 0.91706628 222 4 0.02461081
2.8292813 0.93453127 0.8320753 222 4 0.024633959
2.4787729 0.82632881 0.66247165 242 4 0.024657108
0.3405396 0.12044373 0.1200033 130 4 0.024680257
0.35040119 0.12467949 0.11213732 118 4 0.024703406
0.39284357 0.13999999 0.1091212 102 4 0.024726555
0.40242374 0.14433081 0.099332653 115 4 0.024749704
0.40329906 0.14571796 0.088128351 137 4 0.024772853
0.37939721 0.13851964 0.074939981 108 4 0.024796002
0.43720788 0.15974195 0.067354277 140 4 0.024819151
0.42121199 0.15529113 0.054778937 135 4 0.0248423
-0.67936981 -0.40710613 0.049681257 123 5 0.028791666
-0.6933741 -0.41792792 0.070990533 122 5 0.028814815
-0.6762504 -0.40963715 0.091104701 122 5 0.028837964
-0.68161553 -0.41519704 0.1125401 122 5 0.028861113
-0.70079297 -0.42941946 0.13628489 112 5 0.028884262
-7.1641555 -4.4856343 1.2131002 118 5 0.028907411
-7.1834245 -4.5218797 1.4452592 111 5 0.02893056
-7.0511365 -4.4623184 1.6468821 50 5 0.028953709
-6.1755204 -3.928241 1.6495961 105 5 0.028976858
-4.2573819 -2.7202783 1.291881 223 5 0.029000007
-4.2364087 -2.7214706 1.4284143 226 5 0.029023156
-4.2259746 -2.7294631 1.5698401 228 5 0.029046305
-4.2193151 -2.7399695 1.7148088 228 5 0.029069453
-3.9108953 -2.5529745 1.7320276 222 5 0.029092602
-3.6126997 -2.3706508 1.7348824 216 5 0.029115751
-3.3588398 -2.215667 1.7412851 209 5 0.0291389
-3.1148958 -2.0655742 1.7370751 212 5 0.029162049
-2.9139376 -1.9425963 1.7422405 203 5 0.029185198
-2.7605362 -1.8502716 1.7643437 204 5 0.029208347
-3.0365846 -2.0476463 2.0630808 164 5 0.029231496
-3.8787441 -2.6327305 2.7905006 146 5 0.029254645
-3.6751187 -2.5085213 2.809803 152 5 0.029277794
-3.3893979 -2.3264012 2.7509546 159 5 0.029300943
-3.2049038 -2.2123535 2.7569847 153 5 0.029324092
-3.0343397 -2.1067507 2.7636771 164 5 0.029347241
-2.866914 -2.0021796 2.7624202 172 5 0.02937039
-2.2346506 -1.568496 2.2835345 175 5 0.029393539
-2.1759384 -1.5366925 2.3482978 176 5 0.029416688
-2.2219403 -1.5794228 2.5296934 179 5 0.029439837
-2.2150493 -1.5848137 2.6611125 175 5 0.029462986
-2.1788864 -1.5692499 2.7627563 176 5 0.029486135
-2.1111681 -1.5306609 2.8262188 74 5 0.029509284
-2.0322139 -1.4834962 2.8732927 174 5 0.029532433
-1.9212852 -1.412248 2.8708668 179 5 0.029555582
-1.2696841 -0.93748659 2.0178254 242 5 0.02957873
-1.7177428 -1.2810754 2.8721199 172 5 0.029601879
-1.6207222 -1.2179816 2.8703082 173 5 0.029625028
-1.5368928 -1.1642429 2.8859391 175 5 0.029648177
-1.4460779 -1.1045684 2.883178 173 5 0.029671326
-1.3497932 -1.0399708 2.8621759 176 5 0.029694475
-1.2522272 -0.97358197 2.8292859 178 5 0.029717624
-1.1702894 -0.91872275 2.8230643 172 5 0.029740773
-1.0929074 -0.86687469 2.8216732 172 5 0.029763922
-1.0196227 -0.81775886 2.8254914 174 5 0.029787071
-0.94716847 -0.76878756 2.8266258 174 5 0.02981022
-0.87531728 -0.71977019 2.824194 176 5 0.029833369
-0.80716068 -0.67330652 2.8285022 176 5 0.029856518
-0.73964864 -0.62689185 2.8304231 175 5 0.029879667
-0.67466551 -0.58217269 2.83761 177 5 0.029902816
-0.61010164 -0.53736275 2.8425975 177 5 0.029925965
-0.5445084 -0.4911249 2.8376687 178 5 0.029949114
-0.48259246 -0.44777983 2.8470299 177 5 0.029972263
-0.42347729 -0.40676284 2.8719866 177 5 0.029995412
-0.36048004 -0.36155182 2.8685327 185 5 0.030018561
-0.22375476 -0.23509423 2.1504524 168 5 0.03004171
-0.17584334 -0.19927885 2.1223867 159 5 0.030064858
-0.13217957 -0.16798417 2.1374264 157 5 0.030088007
-0.094449289 -0.14672875 2.3085978 224 5 0.030111156
-0.057519056 -0.14138155 2.893224 187 5 0.030134305
0.0010449438 -0.073778309 2.2530799 220 5 0.030157454
0.044560522 -0.036562089 2.1305165 160 5 0.030180603
0.08821553 -0.0035769027 2.1294444 159 5 0.030203752
0.13683736 0.030473962 2.2057707 176 5 0.030226901
0.19462636 0.06912376 2.351084 166 5 0.03025005
0.29762712 0.12874635 2.8607025 178 5 0.030273199
0.35805175 0.17523256 2.8693235 177 5 0.030296348
0.41734511 0.22161114 2.8660173 177 5 0.030319497
0.47234046 0.26599339 2.8361695 182 5 0.030342646
0.43033957 0.25477511 2.3056729 195 5 0.030365795
0.45064044 0.27659506 2.1715837 202 5 0.030388944
0.6659233 0.41772518 2.8876445 176 5 0.030412093
0.72977775 0.46896812 2.8910744 177 5 0.030435242
0.81046748 0.53156161 2.9509711 177 5 0.030458391
0.87615103 0.58515066 2.9491434 176 5 0.03048154
0.93962967 0.63772845 2.9374156 177 5 0.030504689
1.0171525 0.70027739 2.9638836 176 5 0.030527838
1.095757 0.76425177 2.9861794 184 5 0.030550987
1.1602478 0.81902957 2.9664693 182 5 0.030574135
1.2176543 0.86920887 2.9283683 182 5 0.030597284
1.2878352 0.92882568 2.9189262 183 5 0.030620433
1.3655655 0.99439716 2.9221516 181 5 0.030643582
1.4478328 1.0638797 2.9296417 180 5 0.030666731
1.5345458 1.1372856 2.940119 177 5 0.03068988
1.6227714 1.2125112 2.9474168 175 5 0.030713029
1.3179861 0.99438101 2.2834284 232 5 0.030736178
1.3909479 1.0571798 2.2884088 255 5 0.030759327
1.9539909 1.4929259 3.037797 179 5 0.030782476
2.056016 1.5818374 3.0389769 175 5 0.030805625
2.1263988 1.6471728 2.9900475 181 5 0.030828774
2.2194614 1.7305777 2.9691296 182 5 0.030851923
2.2981339 1.8034509 2.9254129 180 5 0.030875072
2.3056097 1.8209155 2.7940388 182 5 0.030898221
2.3193123 1.843166 2.6750848 176 5 0.03092137
2.2776871 1.8213216 2.5007107 184 5 0.030944519
2.2625642 1.8201275 2.36306 182 5 0.030967668
2.2926214 1.8550293 2.2754457 187 5 0.030990817
2.2877295 1.8617651 2.1567781 190 5 0.031013966
2.290596 1.8746555 2.0491731 179 5 0.031037115
2.2848513 1.8804095 1.9376397 217 5 0.031060264
2.2881453 1.8934616 1.8368421 218 5 0.031083412
2.2949948 1.9094034 1.7412338 218 5 0.031106561
2.287369 1.9132781 1.6375735 219 5 0.03112971
2.2957363 1.9304081 1.5473621 222 5 0.031152859
2.2895722 1.9353265 1.4496975 201 5 0.031176008
2.286727 1.9429497 1.3563594 201 5 0.031199157
2.2824659 1.9493032 1.2642245 203 5 0.031222306
2.2889466 1.9647654 1.1792879 203 5 0.031245455
2.2799761 1.966985 1.088184 194 5 0.031268604
2.2827213 1.979219 1.0038954 194 5 0.031291753
2.2829566 1.9892844 0.91951925 194 5 0.031314902
2.2814219 1.997799 0.83544832 194 5 0.031338051
0.33037671 0.29823402 0.14822648 125 5 0.0313612
0.29923022 0.27225241 0.12768361 106 5 0.031384349
0.30673584 0.28020141 0.11865196 104 5 0.031407498
0.32735619 0.29987672 0.11180399 106 5 0.031430647
0.36631605 0.336117 0.10661238 92 5 0.031453796
0.39917824 0.36722371 0.097894251 104 5 0.031476945
0.39327464 0.3636505 0.083109356 106 5 0.031500094
0.39301866 0.36515051 0.069081776 182 5 0.031523243
0.37252936 0.34822604 0.054507546 120 5 0.031546392
-2.9294066 -3.877619 0.092190705 125 6 0.034384489
-3.0082774 -4.0022316 0.22472697 68 6 0.034407638
-3.0028925 -4.096776 0.89981657 66 6 0.034523383
-2.6278095 -3.6019399 0.91581714 107 6 0.034546532
-2.6253946 -3.6170657 1.0400048 101 6 0.034569681
-2.6049907 -3.6073666 1.1585487 102 6 0.03459283
-2.583338 -3.5958412 1.2770032 100 6 0.034615979
-2.5548887 -3.5746837 1.3924273 102 6 0.034639128
-2.5346377 -3.5649111 1.512655 102 6 0.034662277
-2.4361482 -3.4625254 1.7166798 208 6 0.034708574
-2.2809901 -3.2587614 1.7372087 208 6 0.034731723
-2.1922255 -3.1485727 1.7970732 207 6 0.034754872
-2.3231533 -3.3557022 2.0395751 144 6 0.034778021
-2.3021762 -3.3438387 2.162323 144 6 0.03480117
-2.2875042 -3.3412132 2.2935441 143 6 0.034824319
-2.0954347 -3.0771971 2.2416615 157 6 0.034847468
-2.2339418 -3.3004262 2.5394058 146 6 0.034870617
-2.2124469 -3.2878292 2.6721015 156 6 0.034893766
-2.1245322 -3.175638 2.7243433 158 6 0.034916915
-1.6187259 -2.4315093 2.2094882 179 6 0.034940064
-1.5268273 -2.3070602 2.2093625 176 6 0.034963213
-1.4624273 -2.2232823 2.2415202 178 6 0.034986362
-1.5000714 -2.2956378 2.4318476 179 6 0.035009511
-1.483524 -2.2852831 2.5446794 176 6 0.03503266
-1.4852753 -2.3036096 2.695029 173 6 0.035055809
-1.4466203 -2.2590775 2.777945 178 6 0.035078958
-1.3750648 -2.1622431 2.7959464 175 6 0.035102107
-0.90736485 -1.4332285 1.9643105 166 6 0.035125256
-0.84261274 -1.3403503 1.9336759 170 6 0.035148405
-0.79717261 -1.2775728 1.9399834 162 6 0.035171553
-0.75243455 -1.2152498 1.9435605 162 6 0.035194702
-0.71386808 -1.1623865 1.9591112 162 6 0.035217851
-0.68052262 -1.1176527 1.9866586 173 6 0.035241
-0.64955902 -1.0765179 2.0202043 160 6 0.035264149
-0.62064415 -1.0385351 2.0601122 160 6 0.035287298
-0.61502939 -1.0402154 2.1824486 178 6 0.035310447
-0.47845182 -0.81570953 1.8247519 203 6 0.035333596
-0.42745358 -0.73648971 1.7539831 170 6 0.035356745
-0.39576548 -0.69018543 1.7520822 165 6 0.035379894
-0.37817609 -0.66874218 1.812633 114 6 0.035403043
-0.4991937 -0.91826642 2.8403461 175 6 0.035449341
-0.45323911 -0.84977496 2.8411334 176 6 0.03547249
-0.40806946 -0.78193998 2.8404992 177 6 0.035495639
-0.36564627 -0.71871263 2.8538799 176 6 0.035518788
-0.3282271 -0.66518337 2.9077976 177 6 0.035541937
-0.28571731 -0.60077602 2.9183199 177 6 0.035565086
-0.24336343 -0.53597999 2.9257991 177 6 0.035588235
-0.196031 -0.45828184 2.8534305 178 6 0.035611384
-0.15588203 -0.39628205 2.8653507 177 6 0.035634533
-0.11548273 -0.33281603 2.8664072 179 6 0.035657682
-0.075461403 -0.2693871 2.865473 179 6 0.03568083
-0.028880358 -0.15777741 2.2133899 209 6 0.035703979
0.0014389299 -0.11177054 2.2604947 220 6 0.035727128
0.030112183 -0.058915112 2.1472719 162 6 0.035750277
0.064103536 -0.013113861 2.314369 168 6 0.035773426
0.096244492 0.038157016 2.3399782 165 6 0.035796575
0.12836267 0.090377174 2.354985 165 6 0.035819724
0.16191879 0.14446612 2.3852754 165 6 0.035842873
0.2407767 0.24366398 2.9381046 175 6 0.035866022
0.28000867 0.30998889 2.9373066 177 6 0.035889171
0.32106411 0.37892264 2.9522016 177 6 0.03591232
0.3536056 0.43830568 2.8952198 176 6 0.035935469
0.39056632 0.50311244 2.8796532 177 6 0.035958618
0.42823958 0.56924963 2.8699005 177 6 0.035981767
0.37770492 0.5175724 2.3333261 218 6 0.036004916
0.52276969 0.7293815 2.9551225 177 6 0.036028065
0.56436366 0.80311567 2.9563241 177 6 0.036051214
0.59534067 0.86237127 2.9043801 176 6 0.036074363
0.63822514 0.93911266 2.9095254 177 6 0.036097512
0.68106472 1.0165539 2.9110949 177 6 0.036120661
0.73211455 1.1070321 2.9418013 179 6 0.03614381
0.78641832 1.2035054 2.977978 184 6 0.036166959
0.82346565 1.274673 2.9465053 184 6 0.036190107
0.86490792 1.3531829 2.9294498 182 6 0.036213256
0.9107542 1.4392834 2.9243631 180 6 0.036236405
0.98673898 1.5739151 3.0059226 178 6 0.036259554
1.0386465 1.6718243 3.0071573 177 6 0.036282703
1.0722984 1.741298 2.9546888 175 6 0.036305852
1.1215432 1.8366085 2.9427767 183 6 0.036329001
1.2131536 2.0023279 3.0311079 179 6 0.03635215
0.84519094 1.4102278 2.0326064 196 6 0.036375299
1.310437 2.196702 2.9777241 175 6 0.036398448
1.3722926 2.3174438 2.9746118 181 6 0.036421597
1.4747329 2.5081034 3.0482576 181 6 0.036444746
1.5157478 2.5963333 2.990026 177 6 0.036467895
1.5946006 2.7502518 3.0002606 174 6 0.036491044
1.6773636 2.9125965 3.0093658 180 6 0.036514193
1.7166972 3.0011144 2.9371164 178 6 0.036537342
1.7211742 3.0292897 2.8077807 181 6 0.036560491
1.7160199 3.0404127 2.667639 177 6 0.03658364
1.6913623 3.0166445 2.5041254 182 6 0.036606789
1.6854831 3.0257497 2.3737457 177 6 0.036629938
1.6988729 3.0692844 2.2726882 181 6 0.036653087
1.6924944 3.0772693 2.1482882 182 6 0.036676235
1.6955467 3.1022329 2.0384929 178 6 0.036699384
1.6893674 3.110307 1.9204967 208 6 0.036722533
1.6853124 3.1221373 1.8076707 208 6 0.036745682
1.6835209 3.1380699 1.6994907 210 6 0.036768831
1.6841152 3.1584249 1.5954155 209 6 0.03679198
1.6828424 3.1753089 1.491152 202 6 0.036815129
1.6805975 3.1903615 1.387557 202 6 0.036838278
1.6804956 3.2094862 1.2869115 202 6 0.036861427
1.6795111 3.22698 1.186605 202 6 0.036884576
1.6807718 3.2488444 1.0885601 201 6 0.036907725
1.6767682 3.2606297 0.98800975 201 6 0.036930874
0.21380354 0.43602201 0.12953977 107 6 0.037000321
0.20566252 0.4224816 0.11416476 111 6 0.03702347
0.19738461 0.40849218 0.099673763 113 6 0.037046619
0.19697955 0.41012302 0.087784871 113 6 0.037069768
0.19643116 0.41147435 0.075866319 114 6 0.037092917
0.19574067 0.41254464 0.063926272 113 6 0.037116066
0.1949095 0.41333288 0.051972911 112 6 0.037139215
-0.71422184 -2.8980365 0.083554864 123 7 0.039818048
-0.73144031 -2.9997313 0.16575825 89 7 0.039841197
-0.74577343 -3.0914955 0.252846 59 7 0.039864346
-0.74736202 -3.1652687 0.4292618 67 7 0.039910644
-0.7274034 -3.1137362 0.50791609 159 7 0.039933793
-0.70726365 -3.0603178 0.583974 178 7 0.039956942
-0.69477022 -3.039546 0.66441309 180 7 0.039980091
-0.69298434 -3.0662293 0.75548786 172 7 0.04000324
-0.70323998 -3.1480589 0.86332959 74 7 0.040026389
-0.65082604 -2.9453454 0.89481163 135 7 0.040049538
-0.5908463 -2.702935 0.90319443 158 7 0.040072687
-0.58262509 -2.6972294 0.98075318 157 7 0.040095836
-0.5741387 -2.690299 1.0588586 157 7 0.040118985
-0.56670892 -2.6884646 1.1401157 157 7 0.040142134
-0.55894572 -2.6851845 1.2222803 154 7 0.040165283
-0.55048144 -2.6786177 1.3045174 156 7 0.040188432
-0.54309911 -2.6775596 1.3911053 154 7 0.040211581
-0.53222167 -2.6591046 1.4705011 154 7 0.04023473
-0.52376986 -2.6529343 1.5580559 154 7 0.040257879
-0.48457244 -2.5235627 1.6648914 197 7 0.040304177
-0.47647214 -2.5183017 1.7559968 197 7 0.040327325
-0.47292143 -2.5381706 1.8680347 172 7 0.040350474
-0.46342459 -2.5263712 1.9612671 178 7 0.040373623
-0.45456675 -2.5184357 2.0606 178 7 0.040396772
-0.44608891 -2.5131404 2.1658428 178 7 0.040419921
-0.43813333 -2.5115249 2.2786763 177 7 0.04044307
-0.42921218 -2.505055 2.3920934 176 7 0.040466219
-0.41958606 -2.4951251 2.5072887 175 7 0.040489368
-0.41003454 -2.4864416 2.6291859 180 7 0.040512517
-0.3995938 -2.4731357 2.7521961 184 7 0.040535666
-0.30539423 -1.9218811 2.2614286 176 7 0.040558815
-0.28137064 -1.8086437 2.2431662 177 7 0.040581964
-0.26236036 -1.7251767 2.2557418 170 7 0.040605113
-0.24612875 -1.6582426 2.2870004 170 7 0.040628262
-0.24986054 -1.7315462 2.5169935 173 7 0.040651411
-0.24131632 -1.7213469 2.6425037 171 7 0.04067456
-0.23237179 -1.7100406 2.7758164 175 7 0.040697709
-0.1688813 -1.2729962 2.1997797 215 7 0.040720858
-0.13812357 -1.0722091 1.971848 162 7 0.040744007
-0.12390139 -0.9979465 1.9525589 166 7 0.040767156
-0.11163018 -0.93725842 1.9548753 167 7 0.040790305
-0.10046125 -0.88418287 1.9707122 157 7 0.040813453
-0.090498634 -0.84112543 2.0089097 166 7 0.040836602
-0.081397615 -0.80664712 2.0711784 164 7 0.040859751
-0.086236678 -0.93729854 2.5877297 199 7 0.0408829
-0.051236562 -0.5851633 1.7690301 202 7 0.040906049
-0.04235477 -0.53817332 1.7761264 175 7 0.040929198
-0.035111368 -0.51734656 1.8742657 111 7 0.040952347
-0.036684163 -0.71861601 2.859817 177 7 0.040975496
-0.023165785 -0.6376909 2.8424726 179 7 0.040998645
-0.010184931 -0.55652231 2.8149519 152 7 0.041021794
0.002644429 -0.50294429 2.9328499 172 7 0.041044943
0.015170849 -0.42426309 2.9191327 177 7 0.041068092
0.026692728 -0.34115154 2.858582 178 7 0.041091241
0.038201954 -0.26644954 2.8484204 172 7 0.04111439
0.039665487 -0.15907739 2.3545015 167 7 0.041137539
0.046946548 -0.095671512 2.277771 173 7 0.041160688
0.052182738 -0.035573751 2.1563685 165 7 0.041183837
0.065982036 0.020862691 2.3412695 166 7 0.041206986
0.074716531 0.080822736 2.3486845 166 7 0.041230135
0.083268069 0.14122221 2.354502 166 7 0.041253284
0.091966018 0.20271072 2.3666682 165 7 0.041276433
0.10899118 0.28586784 2.561789 203 7 0.041299582
0.13300808 0.39620444 2.8746192 177 7 0.04132273
0.12274349 0.40930358 2.4994013 198 7 0.041345879
0.15624464 0.56315255 2.9531817 176 7 0.041369028
0.16422838 0.63686085 2.9282656 175 7 0.041392177
0.17131941 0.70778084 2.8937268 176 7 0.041415326
0.18010418 0.78641349 2.8901629 177 7 0.041438475
0.1944481 0.89125246 2.9693663 177 7 0.041461624
0.20172058 0.96735626 2.9445903 177 7 0.041484773
0.20678146 1.0339807 2.8934448 177 7 0.041507922
0.21575658 1.1208801 2.8974497 177 7 0.041531071
0.22976188 1.2363297 2.9640255 177 7 0.04155422
0.23569199 1.3123198 2.9301903 176 7 0.041577369
0.24253881 1.3948479 2.9096179 184 7 0.041600518
0.25189492 1.4937834 2.9185333 184 7 0.041623667
0.26666811 1.6279527 2.9852355 181 7 0.041646816
0.26982206 1.6959137 2.9265134 181 7 0.041669965
0.27902141 1.8031205 2.9322085 179 7 0.041693114
0.2946991 1.9557874 3.0007088 177 7 0.041716263
0.29667768 2.0230236 2.9341125 178 7 0.041739412
0.30872744 2.1604476 2.9637582 184 7 0.041762561
0.32213518 2.3124804 3.0030301 179 7 0.04178571
0.32662523 2.4059484 2.9609437 179 7 0.041808859
0.34311295 2.5910175 3.0219505 172 7 0.041832007
0.34683993 2.6866584 2.9723961 182 7 0.041855156
0.36252618 2.8784554 3.0201128 178 7 0.041878305
0.36682484 2.9871271 2.9739025 177 7 0.041901454
0.38084421 3.1792355 3.0020621 172 7 0.041924603
0.38952973 3.3345318 2.9864962 180 7 0.041947752
0.41171974 3.6126714 3.0664077 173 7 0.041970901
0.27656555 2.5093725 2.0333726 181 7 0.04199405
0.43005994 3.9710896 3.0252075 172 7 0.042017199
0.29142773 2.7822733 2.0203323 92 7 0.042040348
0.28676018 2.8120253 1.9320327 121 7 0.042063497
0.47591344 4.7502427 3.0548635 155 7 0.042086646
0.49086332 5.031836 3.0505702 154 7 0.042109795
0.49590057 5.2243443 2.9817431 146 7 0.042132944
0.41292936 4.485198 2.4129431 200 7 0.042156093
0.46832108 5.2235451 2.6293943 151 7 0.042179242
0.46204144 5.305696 2.4984117 140 7 0.042202391
0.45322344 5.3616881 2.3550749 138 7 0.04222554
0.44384015 5.4128995 2.2101688 137 7 0.042248689
0.43799141 5.5097752 2.0825522 229 7 0.042271838
0.4256916 5.5290871 1.9259959 232 7 0.042294987
0.41557682 5.577323 1.7802589 228 7 0.042318135
0.021248138 0.38055468 0.15194152 75 7 0.042341284
0.020505717 0.38328508 0.14193228 75 7 0.042364433
0.013288385 0.29136124 0.11045838 113 7 0.042387582
0.012107903 0.28421232 0.10105027 137 7 0.042410731
0.011508057 0.28562561 0.093588755 138 7 0.04243388
0.010891612 0.2868422 0.086093605 141 7 0.042457029
0.010259619 0.28786117 0.078569949 143 7 0.042480178
0.0096131479 0.28868181 0.071022943 144 7 0.042503327
0.0084708687 0.28033572 0.062869415 144 7 0.042526476
0.0082811033 0.28972572 0.055879582 141 7 0.042549625
0.0075977203 0.2899482 0.048293605 140 7 0.042572774
0.036485795 -0.34106842 0.05010955 167 8 0.045404196
0.038416311 -0.3496311 0.059463676 170 8 0.045427345
0.039185375 -0.34902549 0.068660349 169 8 0.045450494
0.039920874 -0.34817973 0.07784047 164 8 0.045473643
0.045311164 -0.38152051 0.091223367 111 8 0.045496792
0.044818807 -0.37124568 0.09993916 115 8 0.045519941
0.045492306 -0.36956826 0.10970356 110 8 0.04554309
0.047378346 -0.37636882 0.12120714 106 8 0.045566238
0.050517701 -0.39149219 0.13513386 104 8 0.045589387
0.048540693 -0.37164041 0.14094488 106 8 0.045612536
0.050346151 -0.37745023 0.15318817 108 8 0.045635685
0.057195269 -0.41587329 0.1762934 102 8 0.045658834
0.32614443 -2.1318438 0.78411049 167 8 0.045681983
0.32830387 -2.1111779 0.84028465 195 8 0.045705132
0.33548224 -2.1220348 0.90935665 214 8 0.045728281
0.34092304 -2.1216617 0.97560775 213 8 0.04575143
0.34488744 -2.1121266 1.0390977 213 8 0.045774579
0.35108221 -2.1157515 1.1103253 210 8 0.045797728
0.35696536 -2.1170993 1.1824626 209 8 0.045820877
0.36116973 -2.1084061 1.2510167 209 8 0.045844026
0.36517268 -2.0984392 1.3204427 208 8 0.045867175
0.37135044 -2.1004279 1.3993207 216 8 0.045890324
0.37713411 -2.0997345 1.479213 216 8 0.045913473
0.38250011 -2.0963116 1.5600325 214 8 0.045936622
0.38742501 -2.0901151 1.6416895 214 8 0.045959771
0.3918851 -2.0811017 1.7240922 210 8 0.04598292
0.39585721 -2.0692332 1.8071473 199 8 0.046006069
0.40440738 -2.0802238 1.9139125 174 8 0.046029218
0.40988678 -2.0748477 2.0109205 177 8 0.046052366
0.41589674 -2.0714469 2.1145546 175 8 0.046075515
0.42265221 -2.0708859 2.226568 174 8 0.046098664
0.42853269 -2.065249 2.3392615 173 8 0.046121813
0.43364307 -2.0551715 2.4531782 180 8 0.046144962
0.44038817 -2.0518007 2.5820303 178 8 0.046168111
0.44741189 -2.0485611 2.7194593 175 8 0.04619126
0.44988242 -2.0238824 2.8367982 175 8 0.046214409
0.34380358 -1.5260435 2.2707064 169 8 0.046237558
0.33209106 -1.4480337 2.2808583 174 8 0.046260707
0.32138872 -1.3757927 2.2969069 170 8 0.046283856
0.34219831 -1.4343873 2.5379114 174 8 0.046307005
0.34763703 -1.4270692 2.6830645 174 8 0.046330154
0.34886768 -1.401536 2.8064971 174 8 0.046353303
0.23594959 -0.9351812 2.0127208 162 8 0.046376452
0.22066195 -0.85557884 1.973608 156 8 0.046399601
0.2091836 -0.79198164 1.9638385 159 8 0.04642275
0.20114468 -0.74196064 1.9845721 159 8 0.046445899
0.19614455 -0.7030344 2.0368376 157 8 0.046469048
0.19375262 -0.67267495 2.1215303 163 8 0.046492197
0.16826183 -0.56662995 1.9622988 241 8 0.046515346
0.14269795 -0.46499908 1.7825431 195 8 0.046538495
0.13993971 -0.43620917 1.8624898 116 8 0.046561643
0.17965668 -0.52588511 2.5186725 205 8 0.046584792
0.15591137 -0.4314273 2.3674529 165 8 0.046607941
0.14253846 -0.36739749 2.3529184 164 8 0.04663109
0.12913376 -0.30447489 2.3365762 166 8 0.046654239
0.1161411 -0.24355011 2.3264155 166 8 0.046677388
0.103498 -0.18413591 2.3235445 166 8 0.046700537
0.083574101 -0.11603782 2.1524682 166 8 0.046723686
0.071868829 -0.061948419 2.1551812 166 8 0.046746835
0.065748028 -0.0084173018 2.3413553 166 8 0.046769984
0.052994601 0.050781075 2.3591483 165 8 0.046793133
0.039445084 0.10995532 2.3573639 164 8 0.046816282
0.025674488 0.16900964 2.3539941 165 8 0.046839431
0.011692667 0.22790302 2.3490415 165 8 0.04686258
-0.0025514751 0.28211656 2.3067892 167 8 0.046885729
-0.016940454 0.34758735 2.3512111 165 8 0.046908878
-0.031978637 0.41229656 2.3759229 163 8 0.046932027
-0.047340717 0.47503337 2.3820665 165 8 0.046955176
-0.064533763 0.55198997 2.4458456 185 8 0.046978325
-0.095891386 0.74008101 2.9252229 180 8 0.047001474
-0.1150457 0.81039387 2.8961718 175 8 0.047024623
-0.13462831 0.88233256 2.8738778 179 8 0.047047772
-0.16008747 0.99062717 2.9583714 177 8 0.04707092
-0.18217896 1.0729073 2.9555542 177 8 0.047094069
-0.20087501 1.1330932 2.8937097 177 8 0.047117218
-0.2240999 1.2182752 2.8947921 177 8 0.047140367
-0.2546421 1.3407353 2.9729524 185 8 0.047163516
-0.27295578 1.3946538 2.8969233 177 8 0.047186665
-0.29867849 1.4860896 2.8976746 184 8 0.047209814
-0.33446994 1.6251876 2.97983 181 8 0.047232963
-0.35293654 1.6759963 2.8977385 182 8 0.047256112
-0.38255668 1.7793887 2.9042971 181 8 0.047279261
-0.42124158 1.9223459 2.9652042 178 8 0.04730241
-0.44747287 2.0047641 2.9274139 178 8 0.047325559
-0.4910911 2.1633487 2.9917614 183 8 0.047348708
-0.51480454 2.230463 2.9256999 183 8 0.047371857
-0.55247897 2.3569531 2.9330642 182 8 0.047395006
-0.59363109 2.4954493 2.9474478 178 8 0.047418155
-0.63474882 2.6307523 2.9503512 181 8 0.047441304
-0.67843735 2.7738101 2.9542289 185 8 0.047464453
-0.72774726 2.9367728 2.9703021 179 8 0.047487602
-0.77229047 3.0771353 2.9557431 176 8 0.047510751
-0.83880079 3.3019085 3.0103011 182 8 0.0475339
-0.87583232 3.4063416 2.9481833 176 8 0.047557048
-0.60451776 2.3148153 1.9166471 124 8 0.047580197
-0.62855631 2.379894 1.8689009 168 8 0.047603346
-1.0874634 4.0896525 3.0125966 167 8 0.047626495
-1.1523913 4.2874842 2.9881856 172 8 0.047649644
-1.2265974 4.5159717 2.9739692 165 8 0.047672793
-0.9949261 3.6196582 2.2599566 174 8 0.047695942
-1.4349644 5.1776319 3.0286553 152 8 0.047719091
-1.5299015 5.4659433 3.0054705 147 8 0.04774224
-1.2342358 4.3611112 2.2600265 165 8 0.047765389
-1.2608447 4.4122009 2.1406863 162 8 0.047788538
-1.9438521 6.7500534 3.0336528 128 8 0.047811687
-2.1302552 7.3298349 3.0593383 122 8 0.047834836
-1.4874415 5.0633864 1.9708534 91 8 0.047857985
-2.6077597 8.8133354 3.129396 99 8 0.047881134
-0.099898316 0.3123357 0.14509551 97 8 0.047904283
-0.079491645 0.24162056 0.11529616 106 8 0.047927432
-0.082847282 0.25054687 0.11056047 106 8 0.047950581
-0.079085119 0.23604819 0.099938281 145 8 0.04797373
-0.080061227 0.23716559 0.093406878 159 8 0.047996879
-0.078353897 0.22964217 0.085347526 162 8 0.048020028
-0.081871182 0.23890083 0.080248006 167 8 0.048043177
-0.080005638 0.23099317 0.07260146 172 8 0.048066325
-0.080759041 0.23142639 0.066197351 176 8 0.048089474
-0.081462741 0.23169789 0.059778366 179 8 0.048112623
-0.08211574 0.23180759 0.053348914 178 8 0.048135772
-0.082717054 0.23175563 0.046913397 174 8 0.048158921
0.60623091 -1.0526987 0.068344206 149 9 0.05105114
0.60821712 -1.0503451 0.10012059 150 9 0.051074289
0.60521644 -1.0395381 0.13121176 143 9 0.051097438
0.61090243 -1.0434797 0.16353725 143 9 0.051120587
0.61159509 -1.0389754 0.19513404 143 9 0.051143736
0.61642504 -1.0413949 0.22797674 153 9 0.051166885
0.61623979 -1.0354344 0.25957787 152 9 0.051190034
0.61967027 -1.0354725 0.29264289 152 9 0.051213183
0.61858636 -1.0280631 0.32413211 150 9 0.051236331
0.62160027 -1.0273844 0.35770109 149 9 0.05125948
0.62413281 -1.0258887 0.39151111 147 9 0.051282629
0.63068968 -1.0308611 0.42825964 145 9 0.051305778
0.63170666 -1.0268334 0.46236801 144 9 0.051328927
0.63270998 -1.0227747 0.49693769 144 9 0.051352076
0.63763076 -1.0249242 0.53502619 144 9 0.051375225
0.64146423 -1.0252709 0.57325047 143 9 0.051398374
0.64517576 -1.0253561 0.61235183 142 9 0.051421523
0.64825308 -1.0243788 0.65191692 142 9 0.051444672
0.65020049 -1.0215814 0.69143653 142 9 0.051467821
0.65196079 -1.018445 0.7317915 142 9 0.05149097
0.65677387 -1.0199412 0.77662754 141 9 0.051514119
0.66125554 -1.0208189 0.82266551 141 9 0.051537268
0.66445136 -1.0196334 0.86879927 140 9 0.051560417
0.66725439 -1.0177587 0.91607672 140 9 0.051583566
0.67272055 -1.0197768 0.96873158 149 9 0.051606715
0.67325032 -1.0142891 1.016598 148 9 0.051629864
0.67672139 -1.0130811 1.0706584 149 9 0.051653013
0.67953968 -1.0107752 1.1260802 148 9 0.051676162
0.6845392 -1.0115179 1.1876352 147 9 0.051699311
0.68825614 -1.0102072 1.2500873 147 9 0.051722459
0.69421273 -1.0119408 1.3198364 146 9 0.051745608
0.69826686 -1.0107073 1.3898956 154 9 0.051768757
0.70115829 -1.0075954 1.4616225 154 9 0.051791906
0.70575613 -1.0066655 1.5411472 153 9 0.051815055
0.70817977 -1.002407 1.6209154 153 9 0.051838204
0.71223032 -1.0001395 1.7096108 151 9 0.051861353
0.7168752 -0.99835271 1.8059288 158 9 0.051884502
0.71920061 -0.99300784 1.9034035 162 9 0.051907651
0.72480929 -0.99172223 2.0171573 161 9 0.0519308
0.73030722 -0.98976874 2.1400008 161 9 0.051953949
0.73764372 -0.9896695 2.2790928 168 9 0.051977098
0.74167591 -0.98451287 2.4206488 168 9 0.052000247
0.58190513 -0.76603377 2.0239546 163 9 0.052023396
0.53663528 -0.69869339 1.984677 167 9 0.052046545
0.50518709 -0.64970684 1.9904469 159 9 0.052069694
0.47988868 -0.60880291 2.0196486 159 9 0.052092843
0.45754734 -0.57169801 2.0636485 166 9 0.052115992
0.45548502 -0.55903149 2.2072773 184 9 0.052139141
0.33983609 -0.41125321 1.795869 196 9 0.05216229
0.31005278 -0.36739227 1.7841178 167 9 0.052185439
0.32165882 -0.37043121 2.0182617 176 9 0.052208588
0.34450006 -0.38314462 2.3740146 165 9 0.052231736
0.30795395 -0.32977596 2.3689268 164 9 0.052254885
0.2716679 -0.27717921 2.3630548 164 9 0.052278034
0.23635189 -0.22599207 2.3633695 165 9 0.052301183
0.19947077 -0.17390078 2.3451436 166 9 0.052324332
0.16497427 -0.12427022 2.3510835 166 9 0.052347481
0.12241642 -0.070600435 2.2227333 179 9 0.05237063
0.089795135 -0.023990436 2.2343409 177 9 0.052393779
0.059420001 0.024090502 2.3414171 166 9 0.052416928
0.024357392 0.073315434 2.3500175 166 9 0.052440077
-0.011136576 0.12226466 2.3480427 165 9 0.052463226
-0.046945006 0.17169587 2.3534615 164 9 0.052486375
-0.082859106 0.22040014 2.3483112 164 9 0.052509524
-0.11926838 0.26977789 2.3495166 164 9 0.052532673
-0.15606906 0.31932488 2.3500791 164 9 0.052555822
-0.19320264 0.36890727 2.3489904 162 9 0.052578971
-0.23064354 0.41848794 2.3462396 163 9 0.05260212
-0.26925731 0.46962932 2.3496039 163 9 0.052625269
-0.30621517 0.51727438 2.3347447 164 9 0.052648418
-0.34825549 0.57308608 2.3528838 164 9 0.052671567
-0.39117739 0.62955076 2.3679655 165 9 0.052694716
-0.44584715 0.70414466 2.4394515 199 9 0.052717865
-0.57166952 0.88963044 2.8453436 179 9 0.052741013
-0.62836003 0.96298259 2.8649385 178 9 0.052764162
-0.69629931 1.0526136 2.9227853 177 9 0.052787311
-0.74834329 1.1169598 2.9051321 177 9 0.05281046
-0.79835975 1.1776907 2.8770764 177 9 0.052833609
-0.87374723 1.2752857 2.9314947 184 9 0.052856758
-0.93478042 1.3506681 2.9283423 181 9 0.052879907
-0.98369551 1.4077804 2.8844261 182 9 0.052903056
-1.0729647 1.5221486 2.9496861 181 9 0.052926205
-1.1227753 1.5791652 2.9000087 180 9 0.052949354
-1.1811324 1.647765 2.8703108 182 9 0.052972503
-1.0874848 1.5039476 2.4935656 219 9 0.052995652
-1.0752704 1.4753889 2.3270624 227 9 0.053018801
-1.4365928 1.9602077 2.9251342 182 9 0.05304195
-1.0646459 1.4393458 2.0573823 77 9 0.053065099
-1.5873879 2.1365519 2.8838542 176 9 0.053088248
-1.6896964 2.2595997 2.9007695 184 9 0.053111397
-1.7751821 2.3588817 2.880724 179 9 0.053134546
-1.8892144 2.4950497 2.8975222 184 9 0.053157695
-2.0015163 2.6275058 2.901027 175 9 0.053180844
-2.0951881 2.7341897 2.8694508 184 9 0.053203993
-1.4659935 1.8984072 1.9088126 118 9 0.053227141
-1.4701693 1.8926729 1.8086747 134 9 0.05325029
-2.4874206 3.1912513 2.8627169 170 9 0.053273439
-2.5227294 3.2183731 2.7366567 164 9 0.053296588
-2.5090306 3.1829898 2.5633042 181 9 0.053319737
-3.0191264 3.8112171 2.8925946 156 9 0.053342886
-2.4077847 3.0208566 2.1736126 181 9 0.053366035
-3.396714 4.2431035 2.8572817 149 9 0.053389184
-2.8870161 3.5857282 2.2761612 113 9 0.053412333
-2.8815322 3.5601509 2.1186531 169 9 0.053435482
-2.9289918 3.6001914 2.0016069 159 9 0.053458631
-4.3994999 5.3851275 2.7647691 123 9 0.05348178
-4.1471567 5.0497937 2.4055357 156 9 0.053504929
-3.3841486 4.0979729 1.8090148 93 9 0.053528078
-3.9705584 4.7857275 1.9299124 91 9 0.053551227
-0.24925995 0.28926432 0.14944583 82 9 0.053574376
-0.19123872 0.21842049 0.11616882 102 9 0.053597525
-0.20422652 0.2327791 0.11240492 97 9 0.053620674
-0.17735904 0.19979982 0.095793858 133 9 0.053643823
-0.17354651 0.19431023 0.087484576 146 9 0.053666972
-0.1689045 0.18790014 0.079421937 147 9 0.053690121
-0.16989706 0.18812606 0.072800748 150 9 0.05371327
-0.17077756 0.1882176 0.066160165 150 9 0.053736418
-0.17154492 0.18817498 0.05950474 150 9 0.053759567
-0.17219825 0.18799867 0.052839026 148 9 0.053782716
-0.17865779 0.19446667 0.046226457 145 9 0.053805865
1.8845893 -1.4623121 0.099127799 155 10 0.056516886
1.9068919 -1.4722466 0.16279799 156 10 0.056540035
1.8866858 -1.4495598 0.2238376 156 10 0.056563184
1.8928922 -1.4471196 0.28694057 157 10 0.056586333
1.8906449 -1.438252 0.3492009 158 10 0.056609482
1.9004968 -1.438517 0.41385564 157 10 0.056632631
1.9026544 -1.4329526 0.47770482 158 10 0.056655779
1.9034319 -1.4263471 0.54172057 157 10 0.056678928
1.9098517 -1.4239174 0.60792792 157 10 0.056702077
1.9210228 -1.424939 0.67671019 165 10 0.056725226
1.9306263 -1.4247178 0.74637437 164 10 0.056748375
1.9324709 -1.4187481 0.8144173 164 10 0.056771524
1.9327574 -1.4116162 0.88282931 161 10 0.056794673
1.9443449 -1.4126241 0.95759338 161 10 0.056817822
1.9473481 -1.4073496 1.0300283 160 10 0.056840971
1.9560499 -1.4060937 1.1070821 159 10 0.05686412
1.9620882 -1.4028406 1.1847038 158 10 0.056887269
1.9596088 -1.3934767 1.259142 157 10 0.056910418
1.9617647 -1.3873421 1.3382286 157 10 0.056933567
1.9746838 -1.3886603 1.426986 156 10 0.056956716
1.9851785 -1.3881279 1.5172025 162 10 0.056979865
1.9869601 -1.3814182 1.6039041 161 10 0.057003014
1.992507 -1.3772013 1.6965433 159 10 0.057026163
1.9318678 -1.3196467 1.8264201 202 10 0.057072461
1.9305818 -1.3106788 1.9202163 187 10 0.05709561
1.959507 -1.3218582 2.0485151 169 10 0.057118759
1.9687797 -1.3195598 2.1629698 169 10 0.057141908
1.9738598 -1.3142523 2.2784076 178 10 0.057165056
1.9859744 -1.3133516 2.4080031 174 10 0.057188205
1.988646 -1.3059838 2.5330741 172 10 0.057211354
1.9923271 -1.2990289 2.6662865 169 10 0.057234503
1.995977 -1.2917752 2.8071742 171 10 0.057257652
1.9858091 -1.2753919 2.9365802 177 10 0.057280801
1.511812 -0.96510178 2.3637142 175 10 0.05730395
1.4370402 -0.91015357 2.3670638 176 10 0.057327099
1.3503548 -0.84830797 2.3458147 167 10 0.057350248
1.4005678 -0.87155885 2.5632226 183 10 0.057373397
1.4661376 -0.90324152 2.8300273 176 10 0.057396546
1.0773804 -0.65902591 2.2122645 213 10 0.057419695
0.93707305 -0.56799579 2.0437319 162 10 0.057442844
0.87065846 -0.52216405 2.0174477 166 10 0.057465993
0.81858921 -0.48525342 2.0189791 166 10 0.057489142
0.77649868 -0.45443597 2.0431633 166 10 0.057512291
0.74555093 -0.43012151 2.0982549 165 10 0.05753544
0.77974635 -0.442076 2.3502259 213 10 0.057558589
0.57358283 -0.32115144 1.8759199 231 10 0.057581738
0.50980979 -0.28029639 1.80888 172 10 0.057604887
0.49421605 -0.26540124 1.9077055 107 10 0.057628036
0.69601887 -0.36019564 2.9152665 177 10 0.057651184
0.62621075 -0.31372499 2.9006917 177 10 0.057674333
0.5658021 -0.27222714 2.9267151 176 10 0.057697482
0.5043149 -0.23041308 2.9498804 177 10 0.057720631
0.43298849 -0.18471903 2.9119284 177 10 0.05774378
0.36437166 -0.1409273 2.8785105 179 10 0.057766929
0.30127779 -0.099752583 2.8796036 179 10 0.057790078
0.18194287 -0.046521157 2.2192194 196 10 0.057813227
0.13012734 -0.015257485 2.1622639 163 10 0.057836376
0.09124662 0.01657374 2.358454 166 10 0.057859525
0.039807066 0.048898853 2.3504498 166 10 0.057882674
-0.011397393 0.081108816 2.3498573 166 10 0.057905823
-0.06246851 0.11263216 2.3386996 165 10 0.057928972
-0.11363191 0.14424901 2.3349631 164 10 0.057952121
-0.16727832 0.17835921 2.3644614 164 10 0.05797527
-0.23634608 0.22698368 2.5408971 204 10 0.057998419
-0.33781078 0.30256164 2.9228053 179 10 0.058021568
-0.40022099 0.33911914 2.8934202 176 10 0.058044717
-0.46156886 0.37465537 2.8612638 175 10 0.058067866
-0.53008235 0.41578498 2.8711407 178 10 0.058091015
-0.60828668 0.46389905 2.9203072 182 10 0.058114164
-0.67756605 0.50439817 2.9166822 177 10 0.058137313
-0.72975731 0.5318135 2.8432579 179 10 0.058160461
-0.8004871 0.57275426 2.8432853 177 10 0.05818361
-0.88990253 0.62655395 2.8988726 179 10 0.058206759
-0.96889657 0.67218083 2.9101803 177 10 0.058229908
-1.0169436 0.69582194 2.8299472 177 10 0.058253057
-1.0904744 0.73689497 2.8212113 184 10 0.058276206
-1.2004606 0.80212587 2.8956087 185 10 0.058299355
-1.2800597 0.84609818 2.8877103 184 10 0.058322504
-1.3349861 0.87329972 2.8240917 184 10 0.058345653
-1.4185504 0.91907114 2.8190215 184 10 0.058368802
-1.5112098 0.97021055 2.8259745 187 10 0.058391951
-1.6049125 1.021408 2.8284376 182 10 0.0584151
-1.7004886 1.073194 2.8280036 180 10 0.058438249
-1.8425384 1.153671 2.8937221 185 10 0.058461398
-1.9045178 1.1830206 2.8288927 177 10 0.058484547
-1.9941239 1.2292731 2.802846 183 10 0.058507696
-2.1641617 1.3245367 2.878463 177 10 0.058530845
-2.2363257 1.3587636 2.8176796 179 10 0.058553994
-2.3067732 1.3916243 2.7539635 172 10 0.058577143
-2.4751639 1.4831666 2.7985616 181 10 0.058600292
-2.6023839 1.5489486 2.7872555 184 10 0.058623441
-2.7995429 1.6555104 2.8387313 179 10 0.05864659
-2.8837516 1.6941054 2.7691183 177 10 0.058669738
-3.1239433 1.8237387 2.8371322 181 10 0.058692887
-3.209296 1.8615946 2.7568927 175 10 0.058716036
-2.3159454 1.3326536 1.8926735 103 10 0.058739185
-3.581214 2.0518003 2.7424178 167 10 0.058762334
-2.4497514 1.3923463 1.782938 112 10 0.058785483
-2.5447972 1.4376706 1.7438061 129 10 0.058808632
-4.2688894 2.4019647 2.72331 152 10 0.058831781
-4.3138599 2.4125369 2.581912 150 10 0.05885493
-4.2380443 2.3556437 2.3754747 160 10 0.058878079
-3.9799731 2.1984196 2.0856414 160 10 0.058901228
-5.618166 3.0878239 2.7231643 134 10 0.058924377
-4.7850227 2.6131358 2.1567724 133 10 0.058947526
-4.7582221 2.5830383 1.9807384 150 10 0.058970675
-4.8885932 2.6383228 1.8686818 118 10 0.058993824
-5.2247915 2.8036532 1.8211598 199 10 0.059016973
-5.4887185 2.928328 1.732445 239 10 0.059040122
-6.0691447 3.219769 1.7169198 222 10 0.059063271
-0.33747885 0.170937 0.12616277 88 10 0.05908642
-0.2857419 0.14271265 0.10474429 115 10 0.059109569
-0.27251601 0.1349332 0.093654379 135 10 0.059132718
-0.27389359 0.13482435 0.08568202 137 10 0.059155867
-0.27508569 0.13461529 0.07768143 138 10 0.059179015
-0.27609125 0.13430676 0.069658108 138 10 0.059202164
-0.27690914 0.13389958 0.061617535 138 10 0.059225313
-0.27753863 0.13339464 0.053565238 137 10 0.059248462
-0.28601474 0.13684537 0.045536142 132 10 0.059271611
2.9952776 -0.85869735 0.12605684 192 11 0.061959028
2.994236 -0.85066479 0.20755778 192 11 0.061982177
2.9651973 -0.83482325 0.28682956 194 11 0.062005326
2.9600565 -0.82574296 0.36734763 192 11 0.062028475
2.9700749 -0.82084006 0.4499929 191 11 0.062051624
