# .PCD v0.7 - Point Cloud Data file format
VERSION 0.7
FIELDS x y z intensity ring time
SIZE 4 4 4 4 2 4
TYPE F F F F U F
COUNT 1 1 1 1 1 1
WIDTH 944
HEIGHT 1
VIEWPOINT 0 0 0 1 0 0 0
POINTS 944
DATA ascii
0.038942125 0.25730988 0.089187689 167 3 0.018974923
0.035438295 0.24092498 0.079782851 185 3 0.018998072
0.035001211 0.24184248 0.073400714 189 3 0.019021221
0.03453308 0.24259415 0.066998772 188 3 0.019044369
0.032551367 0.23432201 0.059993066 169 3 0.019067518
0.033507124 0.24359769 0.054153025 170 3 0.019090667
0.038566139 0.27839226 0.048175875 192 3 0.019113816
0.0070778849 -0.30794495 0.049537148 186 4 0.021838665
0.0082253106 -0.31666699 0.05797581 170 4 0.021861814
0.010679277 -0.35105589 0.068660349 170 4 0.021884963
0.014615564 -0.41091752 0.083618224 120 4 0.021908112
0.028295057 -0.64562792 0.12309667 114 4 0.021931261
0.022359347 -0.51291364 0.12061885 118 4 0.02195441
0.01785261 -0.41530854 0.11729339 108 4 0.021977559
0.017173434 -0.38777924 0.12299103 186 4 0.022000708
0.017977241 -0.38554877 0.13311978 186 4 0.022023857
0.023236888 -0.45069596 0.1606326 109 4 0.022047006
0.39344123 -3.6904166 2.9879806 143 4 0.022417389
0.38960078 -3.5581026 3.0391397 158 4 0.022440538
0.39191344 -3.4845855 3.1376963 153 4 0.022463687
0.40266699 -3.4847472 3.3059802 166 4 0.022486836
0.33463398 -2.8295314 2.8360646 194 4 0.022509985
0.38878512 -3.1927943 3.3650072 178 4 0.022533134
0.31370032 -2.5188422 2.8060176 180 4 0.022556283
0.30524465 -2.3879368 2.8051345 182 4 0.022579432
0.31953382 -2.431345 3.0097041 172 4 0.02260258
0.33166951 -2.4545972 3.2042418 175 4 0.022625729
0.33065906 -2.3813157 3.2823777 176 4 0.022648878
0.32464483 -2.2749331 3.3146751 176 4 0.022672027
0.31466085 -2.1450217 3.3078339 172 4 0.022695176
0.30789346 -2.0402246 3.3337426 170 4 0.022718325
0.30278409 -1.9486787 3.3788028 174 4 0.022741474
0.20517001 -1.2940501 2.3982394 201 4 0.022764623
0.19873555 -1.2158977 2.40066 192 4 0.022787772
0.27199686 -1.5964572 3.3488121 183 4 0.022810921
0.26470092 -1.502376 3.3745294 186 4 0.02283407
0.24933448 -1.3671836 3.3001101 178 4 0.022857219
0.18807465 -1.0011152 2.61484 172 4 0.022880368
0.23485737 -1.191933 3.3597422 175 4 0.022903517
0.15195693 -0.63847941 2.6478617 194 4 0.022996113
0.18360811 -0.71602482 3.334291 185 4 0.023019262
0.14265449 -0.51987922 2.7735772 215 4 0.023042411
0.1328651 -0.44291016 2.7521114 217 4 0.02306556
0.12377066 -0.36976194 2.7453098 218 4 0.023088709
0.11214942 -0.29163098 2.6848888 182 4 0.023111857
0.10282288 -0.22128892 2.6740136 189 4 0.023135006
0.11783674 -0.18879755 3.30372 184 4 0.023158155
0.10625834 -0.10368643 3.2989244 183 4 0.023181304
0.094952554 -0.019109672 3.3098729 182 4 0.023204453
0.085157417 0.067337148 3.3885469 183 4 0.023227602
0.069847167 0.14880757 3.2711246 181 4 0.023250751
0.044313811 0.18479961 2.6082778 204 4 0.0232739
0.044857405 0.31772226 3.2774253 181 4 0.023297049
0.032616585 0.41118604 3.3466482 174 4 0.023320198
0.010307516 0.32942903 2.2295971 162 4 0.023343347
0.00098553859 0.38744968 2.2292247 200 4 0.023366496
-0.0090023205 0.53203273 2.6495249 211 4 0.023389645
-0.024495171 0.76013362 3.3294239 173 4 0.023412794
-0.040447585 0.86680853 3.3937278 173 4 0.023435943
-0.056703202 0.9629029 3.404609 175 4 0.023459092
-0.071997084 1.0357389 3.3354278 178 4 0.023482241
-0.087550469 1.111775 3.28266 185 4 0.02350539
-0.10506062 1.2101735 3.2936785 189 4 0.023528539
-0.093965039 0.98143983 2.4857523 136 4 0.023551688
-0.13524075 1.3407549 3.1451554 177 4 0.023574837
-0.13898879 1.2943091 2.8379047 178 4 0.023597986
-0.15339892 1.3576138 2.7868361 181 4 0.023621134
-0.17289139 1.4643419 2.8199651 177 4 0.023644283
-0.19282825 1.5696871 2.8422909 184 4 0.023667432
-0.25462463 2.0096512 3.4190032 179 4 0.023690581
-0.27644491 2.1091564 3.3868351 175 4 0.02371373
-0.29869497 2.2088311 3.3524754 186 4 0.023736879
-0.33023074 2.3736267 3.4078994 181 4 0.023760028
-0.35441729 2.4794614 3.3720531 180 4 0.023783177
-0.37589607 2.5634077 3.3054233 167 4 0.023806326
-0.38500154 2.5616519 3.1353936 170 4 0.023829475
-0.39353156 2.5581703 2.9736748 165 4 0.023852624
-0.39357066 2.5016801 2.7637503 175 4 0.023875773
-0.40972605 2.5511036 2.6773157 177 4 0.023898922
-0.41753325 2.5480664 2.5414071 176 4 0.023922071
-0.42439052 2.540544 2.4081101 170 4 0.02394522
-0.42893124 2.5205102 2.270328 195 4 0.023968369
-0.43682948 2.5217938 2.157485 195 4 0.023991518
-0.44160196 2.5058327 2.0355821 198 4 0.024014667
-0.44913095 2.5067427 1.9320166 192 4 0.024037816
-0.45706367 2.5105133 1.8343155 192 4 0.024060965
-0.46162477 2.4962368 1.7277113 194 4 0.024084114
-0.46686578 2.4865801 1.6283554 197 4 0.024107262
-0.47403941 2.4879539 1.5392597 197 4 0.024130411
-0.47912589 2.4787419 1.446752 198 4 0.02415356
-0.48653838 2.4821856 1.3640327 199 4 0.024176709
-0.49185321 2.4751556 1.2780805 193 4 0.024199858
-0.49653977 2.4654417 1.1933513 195 4 0.024223007
-0.50368267 2.468441 1.1165854 197 4 0.024246156
-0.51052356 2.4701095 1.0407521 199 4 0.024269305
-0.51516896 2.4613092 0.96241534 200 4 0.024292454
-0.42511359 2.0001571 0.73084557 111 4 0.024315603
-0.42492893 1.9748343 0.66420358 68 4 0.024338752
-0.43668061 2.0059204 0.61596441 66 4 0.024361901
-0.45716017 2.0766039 0.57686967 60 4 0.02438505
-0.47802863 2.1474926 0.53453094 54 4 0.024408199
-0.48586324 2.1581113 0.47679842 56 4 0.024431348
-0.56750637 2.4972515 0.47572371 199 4 0.024454497
-0.55851966 2.4297488 0.39749402 203 4 0.024477646
-0.56224656 2.4191427 0.33008391 204 4 0.024500795
-0.43868729 1.8604954 0.21375695 167 4 0.024523944
-0.45404911 1.9058701 0.16641639 212 4 0.024547093
-0.54661983 2.2757599 0.12874453 206 4 0.024570242
-0.54820418 2.2583098 0.067299731 204 4 0.024593391
0.17170049 -0.39528295 0.052958313 107 5 0.027220726
0.17622 -0.4027113 0.064642437 111 5 0.027243875
0.17315991 -0.39350682 0.075489029 175 5 0.027267024
0.17370118 -0.3922151 0.086726382 138 5 0.027290173
0.17411515 -0.39065591 0.097934797 115 5 0.027313322
0.17063376 -0.38076907 0.1077575 111 5 0.027336471
0.17078663 -0.37872353 0.11865266 106 5 0.02735962
0.1523782 -0.33746377 0.12063475 106 5 0.027382769
0.11920957 -0.26570863 0.11236526 111 5 0.027405918
0.10775657 -0.24015933 0.11314682 192 5 0.027429067
0.11127976 -0.24597809 0.12250811 191 5 0.027452216
0.11095292 -0.24377812 0.12954453 191 5 0.027475365
0.20174834 -0.42820397 0.20856887 199 5 0.027498513
0.42994773 -0.8899076 0.4163087 217 5 0.027521662
0.43141741 -0.88726825 0.44542891 217 5 0.027544811
0.25614977 -0.52948958 0.30166498 111 5 0.02756796
0.24750336 -0.50886822 0.30975217 140 5 0.027591109
0.24922426 -0.50903732 0.32849875 140 5 0.027614258
0.25029069 -0.50787371 0.34700054 138 5 0.027637407
0.25505528 -0.51392275 0.37060523 135 5 0.027660556
0.25243118 -0.50547266 0.38550508 132 5 0.027683705
0.25966892 -0.51613969 0.41418248 125 5 0.027706854
0.25996065 -0.51327693 0.43421975 130 5 0.027730003
0.26335269 -0.51630336 0.4596197 126 5 0.027753152
0.26932478 -0.52410913 0.49032709 123 5 0.027776301
0.27185899 -0.52527124 0.51682228 121 5 0.02779945
0.27685079 -0.53092778 0.54888296 120 5 0.027822599
0.28165424 -0.53606921 0.58230233 119 5 0.027845748
0.2823948 -0.53356415 0.60957634 116 5 0.027868897
1.5777346 -2.8960619 3.2968473 156 5 0.027892046
1.5215908 -2.7724071 3.3308332 176 5 0.027915195
1.4392762 -2.6029003 3.301657 177 5 0.027938344
1.3893104 -2.4930973 3.3390265 173 5 0.027961493
1.3083355 -2.3294435 3.2966366 172 5 0.027984641
1.2526269 -2.2120934 3.3093681 174 5 0.02800779
1.2129458 -2.1238399 3.3610406 177 5 0.028030939
1.1368629 -1.9735191 3.308228 176 5 0.028054088
1.1039518 -1.898805 3.3741663 180 5 0.028077237
1.0246618 -1.7460967 3.29548 173 5 0.028100386
0.97722888 -1.648751 3.3093421 175 5 0.028123535
0.9452126 -1.5778732 3.3740692 176 5 0.028146684
0.67925823 -1.1244396 2.5768692 227 5 0.028169833
0.58346933 -0.95581514 2.3486173 172 5 0.028192982
0.79488003 -1.2805427 3.3631041 184 5 0.028216131
0.51528949 -0.82263464 2.3394835 174 5 0.02823928
0.68916059 -1.0790695 3.3060083 179 5 0.028262429
0.63420618 -0.97700781 3.2555852 176 5 0.028285578
0.47015181 -0.66157764 3.3079023 176 5 0.028378174
0.41419041 -0.56426066 3.2077971 192 5 0.028401323
0.30058274 -0.39536184 2.6025476 171 5 0.028424472
0.27802259 -0.34732452 2.7013211 208 5 0.028447621
0.30125642 -0.34971535 3.3138881 180 5 0.02847077
0.22739786 -0.24109086 2.9222908 215 5 0.028493918
0.17888084 -0.16448924 2.7544367 210 5 0.028517067
0.17522602 -0.12283944 3.3213294 181 5 0.028540216
0.13190684 -0.047528211 3.2992907 183 5 0.028563365
0.091736995 0.027375685 3.3709316 182 5 0.028586514
0.048299108 0.10307015 3.3703613 181 5 0.028609663
0.002238062 0.13718793 2.6116469 189 5 0.028632812
-0.038325023 0.24565677 3.257705 183 5 0.028655961
-0.062142495 0.23729169 2.4438059 226 5 0.02867911
-0.087212585 0.2677297 2.2453744 226 5 0.028702259
-0.168972 0.46719366 3.2642066 181 5 0.028725408
-0.21993056 0.55826783 3.362494 172 5 0.028748557
-0.27004218 0.64403689 3.4065478 172 5 0.028771706
-0.31229663 0.7096346 3.3444588 172 5 0.028794855
-0.35973275 0.78683639 3.3396282 175 5 0.028818004
-0.41701272 0.88434988 3.4091327 175 5 0.028841153
-0.45841461 0.94652772 3.340601 177 5 0.028864302
-0.50880343 1.0270329 3.3375583 179 5 0.028887451
-0.57210833 1.1324748 3.4047637 186 5 0.0289106
-0.49660519 0.96287143 2.7019713 235 5 0.028933749
-0.66793585 1.2784611 3.3339691 190 5 0.028956898
-0.61118686 1.1509995 2.8173492 178 5 0.028980047
-0.64967465 1.2074803 2.7743175 179 5 0.029003195
-0.84755456 1.5594376 3.3590345 184 5 0.029026344
-0.92134327 1.6763616 3.4027555 181 5 0.029049493
-0.92076278 1.6567765 3.178772 207 5 0.029072642
-0.84971219 1.5119879 2.7501702 181 5 0.029095791
-0.99451578 1.7545452 3.0166781 176 5 0.02911894
-0.99898642 1.7460396 2.8483739 178 5 0.029142089
-1.0075607 1.7454613 2.7039638 178 5 0.029165238
-1.0181347 1.7488868 2.5746069 177 5 0.029188387
-1.0229068 1.7427634 2.4398057 172 5 0.029211536
-1.0188799 1.7221632 2.2942359 195 5 0.029234685
-1.0267267 1.7223053 2.1834996 197 5 0.029257834
-1.035058 1.7235748 2.0798142 199 5 0.029280983
-1.0415674 1.722072 1.978037 194 5 0.029304132
-1.0489818 1.7223364 1.8829645 199 5 0.029327281
-1.0512904 1.7144314 1.783796 204 5 0.02935043
-1.0619886 1.7205207 1.7026919 208 5 0.029373579
-1.0636822 1.7121068 1.6111854 212 5 0.029396728
-1.0749387 1.7193644 1.5371721 215 5 0.029419877
-1.0770303 1.7119975 1.4533226 208 5 0.029443026
-1.0814368 1.7085296 1.3757317 209 5 0.029466175
-1.0884354 1.7093147 1.303902 211 5 0.029489323
-1.0899551 1.701574 1.2282155 213 5 0.029512472
-1.0942618 1.6983678 1.1580485 214 5 0.029535621
-1.1011268 1.6992519 1.092399 217 5 0.02955877
-1.1073411 1.6991884 1.0277221 218 5 0.029581919
-1.1119429 1.6967065 0.9631831 220 5 0.029605068
-1.1113857 1.6864196 0.89619315 224 5 0.029628217
-1.118812 1.6884234 0.83686441 214 5 0.029651366
-1.1294314 1.6952696 0.78053957 215 5 0.029674515
-1.134472 1.6936858 0.72131741 216 5 0.029697664
-1.1390772 1.6914932 0.66281545 216 5 0.029720813
-1.1421946 1.6871308 0.60447609 217 5 0.029743962
-1.1443558 1.6814141 0.54666108 217 5 0.029767111
-1.1461174 1.675179 0.48963067 217 5 0.02979026
-1.1513793 1.674139 0.43467274 216 5 0.029813409
-1.1507655 1.6645516 0.37844455 215 5 0.029836558
-1.1593539 1.6683939 0.32538196 216 5 0.029859707
-0.96268225 1.3762751 0.23206182 163 5 0.029882856
-0.90350509 1.2843382 0.17836832 234 5 0.029906005
-1.0847439 1.5363909 0.15535854 234 5 0.029929154
-1.1046922 1.5568792 0.10696094 225 5 0.029952303
-1.1089903 1.5550317 0.056990646 222 5 0.029975452
0.11937553 -0.11690127 0.04832349 112 6 0.032564878
0.39417267 -0.36378065 0.070837483 136 6 0.032588027
0.29636008 -0.27440953 0.074940793 112 6 0.032611176
0.28963423 -0.26711199 0.084586203 117 6 0.032634325
0.28938699 -0.26562488 0.094880603 123 6 0.032657474
0.3015264 -0.2750811 0.10774373 120 6 0.032680623
0.29492664 -0.26796713 0.11696921 108 6 0.032703772
0.25498974 -0.2317577 0.11652537 108 6 0.032726921
0.21513095 -0.19595958 0.11331739 109 6 0.03275007
0.18201089 -0.16633871 0.10966314 155 6 0.032773219
0.1745154 -0.15908073 0.11356444 192 6 0.032796368
0.17997581 -0.16299401 0.12247019 192 6 0.032819517
0.17876069 -0.16116458 0.12879574 192 6 0.032842666
0.29643789 -0.2602511 0.19437374 96 6 0.032865815
0.50605673 -0.43595341 0.31848976 132 6 0.032888964
0.50149339 -0.42990527 0.33587268 132 6 0.032912113
0.50835818 -0.43343803 0.36032107 128 6 0.032935262
0.51529688 -0.43696138 0.38580808 124 6 0.032958411
0.52090651 -0.43931162 0.4114278 123 6 0.03298156
0.53859246 -0.45152977 0.4470211 118 6 0.033004709
0.54865003 -0.45733255 0.47877839 111 6 0.033027858
0.56369942 -0.46708539 0.51627529 99 6 0.033051006
0.57252443 -0.4716427 0.55048054 89 6 0.033074155
0.57975024 -0.47480553 0.58492106 87 6 0.033097304
0.60277289 -0.49050376 0.63645375 80 6 0.033120453
0.61869144 -0.50030243 0.68414807 64 6 0.033143602
2.0981777 -1.66649 2.3162344 91 6 0.033166751
2.8766108 -2.2676773 3.3184988 165 6 0.0331899
2.7547784 -2.1583817 3.3411937 167 6 0.033213049
2.5684817 -2.0000532 3.2759123 170 6 0.033236198
2.497745 -1.9323648 3.3476613 170 6 0.033259347
2.335912 -1.7954222 3.2921083 176 6 0.033282496
2.2507162 -1.7181106 3.334697 171 6 0.033305645
2.1160893 -1.6041154 3.2983806 172 6 0.033328794
2.0359223 -1.5320371 3.3390179 176 6 0.033351943
1.9006767 -1.4196011 3.2835042 177 6 0.033375092
1.8415447 -1.3644319 3.3518181 177 6 0.033398241
1.7142936 -1.2598109 3.2926567 173 6 0.03342139
1.6580266 -1.2077154 3.3624671 178 6 0.033444539
1.534763 -1.1078413 3.293123 177 6 0.033467688
1.4632852 -1.0458797 3.3256953 177 6 0.033490837
1.3912448 -0.98396409 3.3555667 182 6 0.033513986
1.2844357 -0.89839089 3.2962651 183 6 0.033537135
1.2253817 -0.84655356 3.3525066 183 6 0.033560283
0.89058101 -0.60886401 2.6183796 225 6 0.033583432
0.77496189 -0.52271301 2.4490161 229 6 0.033606581
0.68654937 -0.41263321 3.3105228 176 6 0.033722326
0.61464876 -0.35612684 3.3048227 180 6 0.033745475
0.55625206 -0.30747122 3.3741956 178 6 0.033768624
0.48355773 -0.25128174 3.3628626 177 6 0.033791773
0.40610209 -0.19354954 3.3064353 179 6 0.033814922
0.2733731 -0.11526009 2.6957643 195 6 0.033838071
0.23280452 -0.077265441 2.877712 216 6 0.03386122
0.20004718 -0.036153566 3.3049781 184 6 0.033884369
0.13247329 0.015575945 3.3255987 182 6 0.033907518
0.06448251 0.0682019 3.3709848 183 6 0.033930667
-0.005214354 0.094049774 2.6756251 222 6 0.033953816
-0.074434564 0.16878168 3.306097 196 6 0.033976965
-0.10395369 0.15567042 2.3788188 224 6 0.034000114
-0.14562766 0.18123817 2.2510984 251 6 0.034023263
-0.28541151 0.32339594 3.3270936 178 6 0.034046412
-0.36476788 0.3833614 3.4018643 175 6 0.03406956
-0.43757859 0.43512759 3.3949561 174 6 0.034092709
-0.50421357 0.48040465 3.3436065 175 6 0.034115858
-0.59002995 0.54360801 3.4100118 172 6 0.034139007
-0.66597742 0.59664136 3.4054062 173 6 0.034162156
-0.73119015 0.63961679 3.3474135 177 6 0.034185305
-0.82105684 0.70388776 3.3961575 178 6 0.034208454
-0.90495366 0.76211005 3.4083247 178 6 0.034231603
-0.96862036 0.802701 3.3436129 178 6 0.034254752
-1.0741005 0.87765813 3.4150727 186 6 0.034277901
-1.1478573 0.92568433 3.3777092 186 6 0.03430105
-1.2300028 0.98008466 3.3624578 184 6 0.034324199
-1.3465071 1.0612502 3.4299684 181 6 0.034347348
-1.4144517 1.1031523 3.3681786 182 6 0.034370497
-1.2561102 0.96877062 2.8084807 186 6 0.034393646
-1.4628971 1.1187958 3.0675244 172 6 0.034416795
-1.4576728 1.1046271 2.8772187 182 6 0.034439944
-1.4812357 1.1128813 2.7557845 182 6 0.034463093
-1.4842429 1.1059005 2.6067176 173 6 0.034486242
-1.4901146 1.1014535 2.4731758 173 6 0.034509391
-1.4826794 1.0874909 2.3280914 188 6 0.03453254
-1.4971148 1.089995 2.2251101 202 6 0.034555689
-1.5038375 1.0870337 2.1170776 195 6 0.034578837
-1.5119299 1.0852685 2.0169268 198 6 0.034601986
-1.5161589 1.0808958 1.9172277 203 6 0.034625135
-1.5277067 1.0819283 1.8312914 208 6 0.034648284
-1.5317518 1.0777379 1.7407662 214 6 0.034671433
-1.543457 1.0790921 1.6625214 207 6 0.034694582
-1.5471175 1.0748811 1.5792292 211 6 0.034717731
-1.55406 1.0730768 1.5025351 216 6 0.03474088
-1.5647072 1.073918 1.4319749 217 6 0.034764029
-1.5672616 1.0692399 1.3568227 220 6 0.034787178
-1.5676042 1.0631505 1.2826642 222 6 0.034810327
-1.5714025 1.0595173 1.2137846 224 6 0.034833476
-1.5868733 1.0638409 1.1552562 224 6 0.034856625
-1.5936041 1.0622706 1.0919372 215 6 0.034879774
-1.5927341 1.0556622 1.0254865 216 6 0.034902923
-1.6035408 1.0568961 0.9677912 218 6 0.034926072
-1.6053072 1.0521566 0.90616959 220 6 0.034949221
-1.6062258 1.0469179 0.84563184 222 6 0.03497237
-1.6118147 1.0447885 0.78869039 223 6 0.034995519
-1.533083 0.98791111 0.69675976 70 6 0.035018668
-1.4791237 0.94764954 0.62136203 157 6 0.035041817
-1.4936606 0.95182371 0.57520181 153 6 0.035064965
-1.4852349 0.94126761 0.5216077 156 6 0.035088114
-1.4836268 0.93514395 0.47141525 110 6 0.035111263
-1.4874052 0.9324742 0.42348275 126 6 0.035134412
-1.4243493 0.88779026 0.36110687 143 6 0.035157561
-1.4179693 0.87900835 0.31421068 145 6 0.03518071
-1.4037198 0.86540186 0.26698986 153 6 0.035203859
-1.275849 0.78161746 0.20663653 189 6 0.035227008
-1.4379352 0.87714064 0.18254283 238 6 0.035250157
-1.5780332 0.95815235 0.14726079 233 6 0.035273306
-1.5744032 0.95075959 0.098655954 229 6 0.035296455
-1.585054 0.95205551 0.050543614 221 6 0.035319604
0.32560727 -0.13356277 0.05371014 110 7 0.038957596
0.40757671 -0.16427381 0.067517459 116 7 0.038980745
0.39050406 -0.15660706 0.077594846 112 7 0.039003894
0.38156381 -0.15212674 0.087650828 117 7 0.039027043
0.38908437 -0.15390854 0.099557273 109 7 0.039050192
0.38796648 -0.15241182 0.11048565 105 7 0.039073341
0.28980988 -0.11482914 0.10224266 102 7 0.03909649
0.23993056 -0.095609121 0.09936399 105 7 0.039119639
0.24603111 -0.097174406 0.10796858 111 7 0.039142787
0.23735477 -0.093330972 0.11279748 191 7 0.039165936
0.24303076 -0.094712727 0.12171742 137 7 0.039189085
0.23410919 -0.090833716 0.12604377 192 7 0.039212234
0.44276604 -0.16429688 0.21166199 133 7 0.039235383
0.81136793 -0.29295188 0.37548298 118 7 0.039258532
0.78096819 -0.2800203 0.38799512 120 7 0.039281681
0.27829605 -0.10348529 0.17662993 124 7 0.03930483
0.35030743 -0.12744445 0.22222109 129 7 0.039327979
0.81420809 -0.28461382 0.48376513 125 7 0.039351128
0.81127012 -0.28124127 0.51047438 124 7 0.039374277
0.81494933 -0.2800816 0.54177618 124 7 0.039397426
0.80953723 -0.27585596 0.56833029 124 7 0.039420575
0.80415088 -0.27164435 0.59542674 124 7 0.039443724
0.82539046 -0.27611908 0.6423558 106 7 0.039466873
3.1503284 -1.0246192 2.44981 179 7 0.039490022
2.6931269 -0.86849838 2.2143662 105 7 0.039513171
3.2015843 -1.0209873 2.7638278 161 7 0.03953632
3.0397844 -0.95991236 2.7651114 172 7 0.039559469
2.8862996 -0.90228826 2.7652984 177 7 0.039582618
2.7589736 -0.85351765 2.782918 181 7 0.039605767
2.6325788 -0.8056885 2.7953207 184 7 0.039628915
2.7394929 -0.82849097 3.0577986 172 7 0.039652064
2.7388971 -0.81842285 3.2162998 171 7 0.039675213
2.6336799 -0.77746409 3.2565291 173 7 0.039698362
2.5233397 -0.73551375 3.2868471 174 7 0.039721511
2.4225097 -0.6968013 3.325918 176 7 0.03974466
2.2669361 -0.64317816 3.283963 179 7 0.039767809
2.1679282 -0.60611558 3.3156319 179 7 0.039790958
2.0313928 -0.55929887 3.2845025 172 7 0.039814107
1.9250137 -0.52134764 3.2941532 175 7 0.039837256
1.8571695 -0.4940455 3.3676748 178 7 0.039860405
1.7178886 -0.4485234 3.3087142 186 7 0.039883554
1.6174986 -0.41370392 3.3148031 181 7 0.039906703
1.5362719 -0.38410234 3.3573012 183 7 0.039929852
0.98922896 -0.24336904 2.3273356 174 7 0.039953001
1.2912045 -0.30654368 3.2396843 181 7 0.03997615
1.2456107 -0.28637165 3.3637507 178 7 0.039999299
0.77649891 -0.13710606 3.3053329 178 7 0.040115044
0.70391184 -0.11224274 3.3677273 178 7 0.040138192
0.59472942 -0.08256039 3.2465026 178 7 0.040161341
0.51291084 -0.057336658 3.2520552 178 7 0.04018449
0.35694203 -0.027997369 2.7053316 219 7 0.040207639
0.30828479 -0.007798376 2.8805943 215 7 0.040230788
0.26635101 0.015978849 3.2381823 186 7 0.040253937
0.18952574 0.040552184 3.3055546 183 7 0.040277086
0.10934194 0.065718085 3.3698628 183 7 0.040300235
0.021184975 0.074711859 2.8522363 214 7 0.040323384
-0.057669327 0.11141808 3.316905 187 7 0.040346533
-0.14337762 0.13737974 3.3844113 178 7 0.040369682
-0.15170328 0.10424428 2.2556646 251 7 0.040392831
-0.21008103 0.12073781 2.2761974 238 7 0.04041598
-0.39131036 0.20253767 3.3167787 181 7 0.040439129
-0.37094152 0.17369632 2.5915902 171 7 0.040462278
-0.46212155 0.20223908 2.7354414 205 7 0.040485427
-0.511702 0.21139352 2.6266263 171 7 0.040508576
-0.62154013 0.24556072 2.808677 195 7 0.040531725
-0.66608912 0.25256553 2.6880162 195 7 0.040554874
-0.72158104 0.26414782 2.6263995 172 7 0.040578023
-1.0106915 0.36077935 3.3336768 181 7 0.040601172
-0.97509545 0.33775976 2.9484158 179 7 0.040624321
-1.2047808 0.40798926 3.3478899 179 7 0.040647469
-1.3079605 0.43288061 3.3615847 186 7 0.040670618
-1.0348166 0.3334232 2.4807446 208 7 0.040693767
-1.0933491 0.34533927 2.4433963 182 7 0.040716916
-1.3190123 0.40989709 2.7501624 229 7 0.040740065
-1.4443533 0.44123003 2.8211935 232 7 0.040763214
-1.5786327 0.47444704 2.895041 233 7 0.040786363
-1.8675984 0.55316931 3.2183058 176 7 0.040809512
-1.8757223 0.54670388 3.0489454 179 7 0.040832661
-1.8803557 0.53960413 2.8872824 178 7 0.04085581
-1.8939133 0.5354172 2.7502551 178 7 0.040878959
-1.9012318 0.52970767 2.6138103 179 7 0.040902108
-1.9083885 0.5242061 2.4859724 174 7 0.040925257
-1.9103627 0.51750427 2.3596561 191 7 0.040948406
-1.9188622 0.51280206 2.2484202 197 7 0.040971555
-1.9290128 0.5087018 2.1449652 201 7 0.040994704
-1.9468552 0.50675988 2.0546079 193 7 0.041017853
-1.9551171 0.50238317 1.9586416 198 7 0.041041002
-1.9605566 0.49739081 1.8643858 202 7 0.041064151
-1.9750752 0.49481884 1.7822906 206 7 0.0410873
-1.9867666 0.49158263 1.7007554 209 7 0.041110449
-1.9887326 0.48598933 1.6143978 213 7 0.041133597
-2.0010216 0.48302525 1.5391527 215 7 0.041156746
-2.0044341 0.47794595 1.4598781 206 7 0.041179895
-2.0125179 0.47405881 1.3864307 208 7 0.041203044
-2.0182302 0.46965331 1.3135996 209 7 0.041226193
-2.021605 0.46475121 1.2414603 211 7 0.041249342
-2.0295303 0.46095315 1.1739025 212 7 0.041272491
-2.0362592 0.45690727 1.1072661 213 7 0.04129564
-2.048018 0.45401934 1.0445561 216 7 0.041318789
-2.0588593 0.45092189 0.98241764 216 7 0.041341938
-2.0589015 0.44544798 0.91662383 219 7 0.041365087
-2.0661068 0.44157729 0.85511971 219 7 0.041388236
-2.0706501 0.43714303 0.79355699 220 7 0.041411385
-2.0818264 0.434131 0.73514861 220 7 0.041434534
-2.0914264 0.43076897 0.67671496 220 7 0.041457683
-2.1004002 0.4272626 0.61855817 220 7 0.041480832
-1.904883 0.38200939 0.51071125 156 7 0.041503981
-1.867257 0.36959776 0.44891125 156 7 0.04152713
-1.851855 0.36182189 0.39404961 150 7 0.041550279
-1.8271496 0.35231507 0.33908677 185 7 0.041573428
-1.7668095 0.33603606 0.2811648 168 7 0.041596577
-1.6607661 0.31132078 0.22201079 224 7 0.041619726
-2.0024838 0.37177798 0.2047158 221 7 0.041642874
-2.0146642 0.36907876 0.15178855 216 7 0.041666023
-2.0176198 0.36463013 0.098160371 214 7 0.041689172
-2.0280387 0.36152866 0.0444954 211 7 0.041712321
0.44001916 0.0049082022 0.045939248 147 8 0.044290781
0.80950171 0.016513547 0.068342291 129 8 0.04431393
0.5271247 0.0097138863 0.073845536 118 8 0.044337079
0.42952475 0.0077236318 0.079705939 89 8 0.044360228
0.42843223 0.0087170806 0.090933338 80 8 0.044383377
0.48844263 0.012039725 0.11041894 115 8 0.044406526
0.41648409 0.010298652 0.11184867 106 8 0.044429675
0.32815456 0.0075082113 0.10641318 153 8 0.044452824
0.3097994 0.0074714953 0.11139225 191 8 0.044475973
0.3156848 0.0085090827 0.12136891 191 8 0.044499122
0.33956578 0.010484835 0.13667499 172 8 0.044522271
0.33700889 0.011186286 0.14553188 168 8 0.04454542
0.35034671 0.012758519 0.15962328 160 8 0.044568568
0.37256208 0.014915493 0.17784835 122 8 0.044591717
1.0818818 0.058616668 0.46428239 106 8 0.044614866
1.0869689 0.061674587 0.49942684 104 8 0.044638015
1.0900294 0.064648755 0.53471899 103 8 0.044661164
1.0928704 0.067648865 0.57091993 101 8 0.044684313
1.1016459 0.071110055 0.61126262 99 8 0.044707462
1.1484116 0.077427939 0.67401868 65 8 0.044730611
3.7347434 0.27663657 2.2217855 141 8 0.04475376
3.585983 0.27500969 2.26336 84 8 0.044776909
4.7900906 0.3826479 3.1855981 145 8 0.044800058
4.5973105 0.37971082 3.235146 143 8 0.044823207
4.3482361 0.37100932 3.2349257 152 8 0.044846356
4.089098 0.36019993 3.2135568 153 8 0.044869505
3.9569991 0.35987565 3.2813258 159 8 0.044892654
3.6905675 0.3461616 3.2290623 161 8 0.044915803
3.5854292 0.3469902 3.306807 167 8 0.044938952
3.3146989 0.33057922 3.223855 164 8 0.044962101
3.2171772 0.33089575 3.2971308 170 8 0.04498525
3.004858 0.31844133 3.2467823 175 8 0.045008399
2.8664806 0.3131147 3.2651136 172 8 0.045031548
2.7357137 0.30802426 3.2860682 173 8 0.045054697
2.5672717 0.29786927 3.2541428 177 8 0.045077845
2.4922078 0.29825124 3.3341401 176 8 0.045100994
2.3281622 0.28721023 3.2916474 177 8 0.045124143
2.1832645 0.27776426 3.2651792 174 8 0.045147292
2.1021929 0.27613068 3.3283334 174 8 0.045170441
1.4117043 0.1895598 2.3826449 194 8 0.04519359
1.3670777 0.18982497 2.4494298 194 8 0.045216739
1.3781927 0.19835879 2.6245942 184 8 0.045239888
1.3573632 0.20257077 2.7546561 182 8 0.045263037
1.3078125 0.20252091 2.8365693 176 8 0.045286186
1.3782692 0.22247218 3.2003005 181 8 0.045309335
1.3149638 0.22101526 3.2846854 176 8 0.045332484
1.2390898 0.21732399 3.34361 175 8 0.045355633
0.74822605 0.17181684 3.2650788 178 8 0.045471378
0.65137541 0.16111559 3.2232637 193 8 0.045494527
0.49423447 0.13255052 2.8235977 218 8 0.045517676
0.40838793 0.12137531 2.7489603 219 8 0.045540825
0.40483573 0.13830139 3.3003244 181 8 0.045563973
0.31459737 0.12714987 3.2574418 182 8 0.045587122
0.23823808 0.12206051 3.3705547 182 8 0.045610271
0.14666598 0.10844486 3.2701561 186 8 0.04563342
0.063256755 0.099736713 3.3091736 185 8 0.045656569
-0.01897981 0.077476703 2.9041975 208 8 0.045679718
-0.1076394 0.079404399 3.3345912 229 8 0.045702867
-0.15584536 0.053897638 2.6981921 222 8 0.045726016
-0.18745913 0.036199901 2.2550833 228 8 0.045749165
-0.24384844 0.028148917 2.2406375 219 8 0.045772314
-0.35363489 0.024723249 2.6170018 173 8 0.045795463
-0.42467719 0.015209589 2.6336722 176 8 0.045818612
-0.48833233 0.0050595193 2.6041431 182 8 0.045841761
-0.70096433 -0.0048001548 3.2618353 176 8 0.04586491
-0.59315908 -0.01520264 2.4646406 201 8 0.045888059
-0.69489354 -0.026504576 2.592114 176 8 0.045911208
-0.81134707 -0.03954988 2.7416499 217 8 0.045934357
-1.1124721 -0.063270144 3.4222744 179 8 0.045957506
-1.1876007 -0.077851489 3.359128 179 8 0.045980655
-1.2854826 -0.094079673 3.3595662 180 8 0.046003804
-1.4180537 -0.11338655 3.4382248 186 8 0.046026953
-1.5268101 -0.13165154 3.4482489 186 8 0.046050102
-1.2597059 -0.11740998 2.6693347 188 8 0.04607325
-1.3469366 -0.13263801 2.6745069 181 8 0.046096399
-1.86532 -0.19089164 3.4651189 182 8 0.046119548
-1.9656755 -0.21044834 3.4374137 177 8 0.046142697
-2.0616009 -0.22993718 3.3998945 178 8 0.046165846
-2.1851597 -0.25291207 3.4030793 181 8 0.046188995
-2.3203533 -0.2778514 3.4167514 181 8 0.046212144
-2.4218221 -0.29939815 3.376281 179 8 0.046235293
-2.4206944 -0.30855766 3.1998048 182 8 0.046258442
-2.3237166 -0.3050589 2.9164398 182 8 0.046281591
-2.44157 -0.32892087 2.9072242 182 8 0.04630474
-2.5317748 -0.34959564 2.8618116 171 8 0.046327889
-2.5726118 -0.36378187 2.7622013 172 8 0.046351038
-2.5847161 -0.37392798 2.6369579 178 8 0.046374187
-2.5993338 -0.38431129 2.5197642 177 8 0.046397336
-2.5964053 -0.3919962 2.3915443 192 8 0.046420485
-2.6082816 -0.40173721 2.2819617 195 8 0.046443634
-2.6232233 -0.41187084 2.1789579 196 8 0.046466783
-2.6283543 -0.4204098 2.0718052 198 8 0.046489932
-2.6433878 -0.4304398 1.9757448 198 8 0.046513081
-2.6479297 -0.43872908 1.8751571 199 8 0.04653623
-2.6640384 -0.44885898 1.7853552 200 8 0.046559379
-2.6773276 -0.45850724 1.6958995 191 8 0.046582527
-2.6946726 -0.46883693 1.6108522 192 8 0.046605676
-2.7025218 -0.4775269 1.5221649 192 8 0.046628825
-2.7146842 -0.48694962 1.4376844 193 8 0.046651974
-2.7252338 -0.4960815 1.3539374 194 8 0.046675123
-2.7333288 -0.50476187 1.2705228 195 8 0.046698272
-2.7462757 -0.51432723 1.1905488 194 8 0.046721421
-2.7496204 -0.52211112 1.1078194 197 8 0.04674457
-2.7580125 -0.53082746 1.0282778 197 8 0.046767719
-2.7810223 -0.54236311 0.95445436 196 8 0.046790868
-2.7851393 -0.55029452 0.87495404 197 8 0.046814017
-2.804147 -0.56116021 0.80038828 195 8 0.046837166
-2.8049834 -0.56845683 0.72139186 197 8 0.046860315
-2.3633599 -0.48600692 0.54887843 130 8 0.046883464
-2.3492398 -0.48908126 0.48092175 144 8 0.046906613
-2.2897367 -0.48263901 0.4071137 127 8 0.046929762
-2.2970726 -0.48994717 0.34576151 129 8 0.046952911
-2.2171865 -0.4787184 0.27529502 166 8 0.04697606
-2.3498557 -0.51286447 0.225787 203 8 0.046999209
-2.3524542 -0.51933402 0.16279294 203 8 0.047022358
-2.3456147 -0.52373767 0.099534661 201 8 0.047045507
0.34965986 0.14373064 0.046972875 126 9 0.049628496
0.35738203 0.14807242 0.057156589 87 9 0.049651645
0.3730602 0.15594006 0.068331949 109 9 0.049674794
0.40390116 0.17057469 0.081875339 172 9 0.049697943
0.45061198 0.19242118 0.099215776 166 9 0.049721092
0.52015376 0.2247224 0.1228358 190 9 0.049744241
0.65258086 0.28565621 0.16205761 165 9 0.04976739
0.30160552 0.12900171 0.10748642 102 9 0.049790539
0.28456771 0.12212992 0.11240543 104 9 0.049813688
0.28255227 0.12203738 0.12048381 101 9 0.049836837
0.26458153 0.11458995 0.12373983 103 9 0.049859986
0.27795139 0.12156905 0.13647884 99 9 0.049883135
0.24440756 0.10674687 0.13304117 105 9 0.049906284
0.24195635 0.10632887 0.13998838 106 9 0.049929433
0.23934335 0.105826 0.14687014 106 9 0.049952582
0.23657054 0.10523811 0.15368173 106 9 0.04997573
0.2336401 0.10456506 0.1604185 106 9 0.049998879
0.24514498 0.11083989 0.17492765 106 9 0.050022028
0.24888951 0.11343157 0.18605849 105 9 0.050045177
3.8556252 1.8759772 2.4077165 160 9 0.050068326
3.8000357 1.8612933 2.5231283 145 9 0.050091475
3.8368537 1.892176 2.703181 163 9 0.050114624
3.8466272 1.9100289 2.8719256 153 9 0.050137773
3.8582656 1.9291065 3.049037 160 9 0.050160922
3.7936032 1.9099442 3.1709309 160 9 0.050184071
3.7020073 1.8768754 3.2705343 161 9 0.05020722
3.444041 1.7581345 3.215673 159 9 0.050230369
3.2752371 1.6838133 3.2293928 165 9 0.050253518
3.1662722 1.6396401 3.2949903 166 9 0.050276667
2.1458662 1.1172363 2.3687615 213 9 0.050299816
2.0928059 1.0978531 2.4369354 243 9 0.050322965
2.6659982 1.4116461 3.262481 174 9 0.050346114
2.5709753 1.3720794 3.3208485 175 9 0.050369263
2.3901753 1.2856621 3.2614222 172 9 0.050392412
2.2527966 1.2217038 3.248518 172 9 0.050415561
2.1370642 1.1687945 3.2586462 177 9 0.05043871
2.0670271 1.1405886 3.335047 174 9 0.050461859
1.9568151 1.0896388 3.3451698 177 9 0.050485007
1.8017908 1.0126679 3.2687397 173 9 0.050508156
1.6997178 0.96479809 3.2763135 176 9 0.050531305
1.6026341 0.91920668 3.288059 179 9 0.050554454
1.5280035 0.8861866 3.3431635 181 9 0.050577603
1.4350693 0.84206724 3.3569136 181 9 0.050600752
1.1723813 0.6955893 2.9449482 209 9 0.050623901
1.027426 0.61730844 2.7780898 176 9 0.05064705
0.95089144 0.57959664 2.7760446 176 9 0.050670199
0.87265313 0.54031396 2.7630184 178 9 0.050693348
0.62780142 0.43757147 3.3016257 179 9 0.050809093
0.54842639 0.39656439 3.302767 178 9 0.050832242
0.4646951 0.3516382 3.267046 179 9 0.050855391
0.39983845 0.32119095 3.3679717 178 9 0.05087854
0.32243797 0.28066671 3.380029 179 9 0.050901689
0.23740107 0.23203273 3.2853527 184 9 0.050924838
0.16489062 0.19515568 3.3454368 182 9 0.050947987
0.072904475 0.12467963 2.7434487 227 9 0.050971135
0.010850261 0.093030624 2.8077233 218 9 0.050994284
-0.063004412 0.069902495 3.3179564 187 9 0.051017433
-0.13697398 0.027984207 3.2902997 209 9 0.051040582
-0.17170399 -0.012152815 2.688714 206 9 0.051063731
-0.22343595 -0.044773925 2.5871205 232 9 0.05108688
-0.2410759 -0.067603573 2.221966 186 9 0.051110029
-0.29291856 -0.096808121 2.2326739 204 9 0.051133178
-0.34386826 -0.12609066 2.2328773 195 9 0.051156327
-0.41990787 -0.16510727 2.368928 175 9 0.051179476
-0.55197197 -0.22801861 2.7440434 212 9 0.051202625
-0.75381184 -0.32353443 3.3428378 177 9 0.051225774
-0.82963532 -0.36895728 3.3280909 178 9 0.051248923
-0.71091461 -0.3271808 2.61273 184 9 0.051272072
-0.78849947 -0.37177446 2.6588063 205 9 0.051295221
-0.85733473 -0.41291207 2.6680791 187 9 0.05131837
-0.95326465 -0.4675892 2.7493949 227 9 0.051341519
-1.2560127 -0.62486601 3.3608093 187 9 0.051364668
-1.3452535 -0.67962778 3.3631077 188 9 0.051387817
-1.4387022 -0.73708236 3.370275 186 9 0.051410966
-1.5474507 -0.80300677 3.405019 180 9 0.051434115
-1.6206684 -0.85121948 3.3583179 186 9 0.051457264
-1.664849 -0.88445789 3.2558799 181 9 0.051480412
-1.6153456 -0.86779535 2.9890592 183 9 0.051503561
-1.6361548 -0.88796061 2.8666644 181 9 0.05152671
-1.7279505 -0.94653344 2.8678734 185 9 0.051549859
-2.1687818 -1.1971502 3.4036975 180 9 0.051573008
-2.3398259 -1.3024628 3.4837396 172 9 0.051596157
-2.4660401 -1.3840203 3.4867146 175 9 0.051619306
-2.2728722 -1.2866626 3.0593836 197 9 0.051642455
-2.3310316 -1.3298233 2.9834018 172 9 0.051665604
-2.4563994 -1.4116464 2.9885838 165 9 0.051688753
-2.4628487 -1.4258192 2.8509853 188 9 0.051711902
-2.1818795 -1.2731186 2.4086661 198 9 0.051735051
-2.2764916 -1.3372939 2.3889208 212 9 0.0517582
-2.4056787 -1.4223999 2.398288 208 9 0.051781349
-2.5363889 -1.5092754 2.4011204 216 9 0.051804498
-2.6869099 -1.6088281 2.4135981 214 9 0.051827647
-2.8329105 -1.7066872 2.4129529 217 9 0.051850796
-3.0050116 -1.8212733 2.4243133 212 9 0.051873945
-3.1918943 -1.946 2.4361181 213 9 0.051897094
-3.3996739 -2.0847602 2.4511676 220 9 0.051920243
-3.61621 -2.2303152 2.4591587 228 9 0.051943392
-3.6695786 -2.2764611 2.3514178 229 9 0.051966541
-3.6597338 -2.2835841 2.2058442 221 9 0.051989689
-3.6536992 -2.2929304 2.066355 220 9 0.052012838
-3.6704183 -2.3164682 1.9419894 181 9 0.052035987
-4.3879752 -2.7833622 2.156054 116 9 0.052059136
-4.4331894 -2.8276057 2.0225449 113 9 0.052082285
-4.4817343 -2.8742375 1.8898592 111 9 0.052105434
-4.5842171 -2.9558451 1.7765566 87 9 0.052128583
-3.8296235 -2.5106649 1.1117253 39 9 0.05219803
-3.8021505 -2.5059402 0.98086953 64 9 0.052221179
-3.7716775 -2.4990373 0.85208857 62 9 0.052244328
-3.7679451 -2.5096779 0.7308808 62 9 0.052267477
-4.4713907 -3.0078702 0.57501352 58 9 0.052313775
-4.4236994 -2.9913061 0.42944324 80 9 0.052336924
-4.3571949 -2.9616868 0.2859233 121 9 0.052360073
0.21642755 0.20638292 0.047434058 190 10 0.054967165
0.22215803 0.21313433 0.055579823 191 10 0.054990314
0.21503268 0.20701037 0.063070692 192 10 0.055013463
0.21411851 0.20710357 0.070872597 190 10 0.055036612
0.21306129 0.20704895 0.078656428 190 10 0.055059761
0.21186222 0.20684618 0.086416855 189 10 0.05508291
0.22291312 0.21920484 0.097137421 181 10 0.055106059
0.22134487 0.21867432 0.10529849 186 10 0.055129208
0.2135291 0.21166618 0.11146124 104 10 0.055152357
0.19962634 0.19825302 0.11493256 104 10 0.055175506
0.19779649 0.19733556 0.12226892 104 10 0.055198655
0.18990737 0.19004026 0.12691244 104 10 0.055221803
0.18788703 0.18887278 0.133913 105 10 0.055244952
0.174796 0.17594212 0.13502313 111 10 0.055268101
0.16122419 0.16237028 0.13486823 192 10 0.05529125
0.15914358 0.16098608 0.14082345 192 10 0.055314399
0.15696223 0.15948199 0.14671265 192 10 0.055337548
0.1601661 0.1638004 0.15648419 192 10 0.055360697
0.16309856 0.16787241 0.16660203 191 10 0.055383846
0.16044508 0.16587666 0.17268384 191 10 0.055406995
0.15769196 0.16375585 0.17867777 191 10 0.055430144
0.16450246 0.17220229 0.19360006 178 10 0.055453293
0.17640871 0.18641908 0.21470004 172 10 0.055476442
2.2242076 2.4787612 2.3803909 176 10 0.055499591
2.2089901 2.4756837 2.5036311 203 10 0.05552274
1.9703203 2.2198553 2.3671207 80 10 0.055545889
2.5414803 2.8830767 3.2174785 163 10 0.055569038
1.7476994 1.9913571 2.3510876 172 10 0.055592187
2.3057232 2.6465013 3.2653909 164 10 0.055615336
2.1834996 2.5214055 3.2699013 170 10 0.055638485
2.0637946 2.3979642 3.2682521 170 10 0.055661634
1.9617403 2.2939713 3.2854991 174 10 0.055684783
1.8875313 2.2218654 3.3438468 171 10 0.055707932
1.7836462 2.1138117 3.3446183 170 10 0.05573108
1.6851596 2.011106 3.3469164 173 10 0.055754229
1.591399 1.9130421 3.3504791 172 10 0.055777378
1.5028431 1.8202974 3.3574047 176 10 0.055800527
1.4152465 1.7277743 3.3591065 177 10 0.055823676
1.3294185 1.6364678 3.357306 172 10 0.055846825
1.057947 1.3120915 2.8522966 233 10 0.055869974
0.92789847 1.1607051 2.6734109 205 10 0.055893123
0.86402255 1.0912993 2.6645436 187 10 0.055916272
0.8399688 1.0724556 2.7787781 219 10 0.055939421
0.92597258 1.1976324 3.2928944 187 10 0.05596257
0.71014625 0.92801136 2.7333829 202 10 0.055985719
0.66737437 0.8840698 2.787082 177 10 0.056008868
0.61640805 0.82883614 2.8075638 176 10 0.056032017
0.41831389 0.63272524 3.3206546 178 10 0.056147762
0.35938436 0.56525385 3.3225777 181 10 0.056170911
0.29468608 0.48715737 3.2521746 185 10 0.05619406
0.24369958 0.43153518 3.3260996 180 10 0.056217209
0.18640262 0.36433557 3.3208494 184 10 0.056240357
0.12771843 0.29241735 3.2595139 185 10 0.056263506
0.073982231 0.23120905 3.3102994 187 10 0.056286655
0.018739004 0.16562219 3.3150647 187 10 0.056309804
-0.036302187 0.099742025 3.3175883 188 10 0.056332953
-0.090603538 0.033417944 3.3008773 188 10 0.056356102
-0.1136404 -0.026663287 2.6216688 174 10 0.056379251
-0.15634134 -0.079037331 2.6183562 178 10 0.0564024
-0.21195972 -0.13973813 2.7795534 228 10 0.056425549
-0.30885887 -0.233704 3.3144522 183 10 0.056448698
-0.36117956 -0.29993108 3.2945776 190 10 0.056471847
-0.29701683 -0.26561525 2.3785465 167 10 0.056494996
-0.38531825 -0.35989136 2.7137392 209 10 0.056518145
-0.53036249 -0.51204693 3.3255119 175 10 0.056541294
-0.5858441 -0.58317274 3.3227012 175 10 0.056564443
-0.64449257 -0.65805298 3.3337846 176 10 0.056587592
-0.69451028 -0.7247569 3.3000777 184 10 0.056610741
-0.67569351 -0.71946847 2.9724326 214 10 0.05663389
-0.81864899 -0.88496578 3.3343947 179 10 0.056657039
-0.87858409 -0.96394348 3.3352818 180 10 0.056680188
-0.94295353 -1.0484996 3.3479359 186 10 0.056703337
-1.0082033 -1.1348487 3.3581691 83 10 0.056726485
-1.0713853 -1.2196783 3.3568969 185 10 0.056749634
-1.1134311 -1.2811257 3.2903154 184 10 0.056772783
-1.1171445 -1.2986006 3.1216633 178 10 0.056795932
-1.0723912 -1.2590456 2.8408761 184 10 0.056819081
-1.1319573 -1.3405651 2.8415873 181 10 0.05684223
-1.3677949 -1.6318017 3.2495339 195 10 0.056865379
-1.2712847 -1.5299594 2.8753276 182 10 0.056888528
-1.5672506 -1.8987138 3.3602569 182 10 0.056911677
-1.6457086 -2.0084655 3.3569198 177 10 0.056934826
-1.625355 -1.9983594 3.1592002 175 10 0.056957975
-1.6505301 -2.0436029 3.0568578 189 10 0.056981124
-1.715026 -2.1377175 3.0261464 189 10 0.057004273
-1.7983661 -2.2561443 3.0231185 182 10 0.057027422
-1.4632516 -1.8497201 2.3552928 210 10 0.057050571
-1.5385388 -1.956776 2.3588586 214 10 0.05707372
-1.6144044 -2.0655806 2.3571215 213 10 0.057096869
-1.7029983 -2.1917052 2.366678 209 10 0.057120018
-1.7923595 -2.3200316 2.3697073 219 10 0.057143167
-1.8867297 -2.4560711 2.3715072 214 10 0.057166316
-1.9906242 -2.6058228 2.3766234 219 10 0.057189465
-2.108294 -2.7750728 2.3882546 217 10 0.057212614
-2.2314141 -2.953151 2.3954637 212 10 0.057235762
-2.3687217 -3.1517637 2.4062514 220 10 0.057258911
-2.4107108 -3.2252188 2.3155594 223 10 0.05728206
-2.4041767 -3.234158 2.1804018 223 10 0.057305209
-2.3951538 -3.2395833 2.0466466 223 10 0.057328358
-2.3933997 -3.2546771 1.9220104 224 10 0.057351507
-2.4041073 -3.2866876 1.8089099 210 10 0.057374656
-0.50496876 -0.70286137 0.3929064 193 10 0.057397805
-0.52270526 -0.7309826 0.37921718 209 10 0.057420954
-0.53580326 -0.75293982 0.36142844 210 10 0.057444103
-0.54360491 -0.76771945 0.33983582 224 10 0.057467252
-0.54602176 -0.77508503 0.31512126 224 10 0.057490401
-0.55309111 -0.78903395 0.29246414 222 10 0.05751355
-0.55922794 -0.80177724 0.26895717 221 10 0.057536699
-0.56554693 -0.81488037 0.24508655 219 10 0.057559848
-0.56639111 -0.82027251 0.21906441 216 10 0.057582997
-0.57191777 -0.83241361 0.19424257 215 10 0.057606146
-0.5821293 -0.85141379 0.16993882 211 10 0.057629295
-0.58174789 -0.85522544 0.14290915 209 10 0.057652444
-0.58546948 -0.86503512 0.11636114 207 10 0.057675593
-0.58425677 -0.86769712 0.089006148 202 10 0.057698742
-0.58263385 -0.86976475 0.061620653 197 10 0.057721891
0.085134663 0.18328017 0.047142908 160 11 0.061382771
0.10175264 0.22385027 0.054153569 188 11 0.061405919
0.10455953 0.23205899 0.061170295 183 11 0.061429068
0.10724809 0.24009337 0.068645559 170 11 0.061452217
0.11285194 0.25527644 0.077513151 167 11 0.061475366
0.11864609 0.27113017 0.087384991 167 11 0.061498515
0.12721644 0.29400039 0.099513829 188 11 0.061521664
0.12297081 0.28559598 0.10631581 192 11 0.061544813
0.11835081 0.27614731 0.11244424 190 11 0.061567962
0.11697661 0.27468389 0.12028111 191 11 0.061591111
0.11553176 0.27302673 0.12806605 192 11 0.06161426
0.11086492 0.26318029 0.13312604 192 11 0.061637409
0.10932995 0.26119834 0.14056717 183 11 0.061660558
0.10467282 0.25116044 0.14482878 188 11 0.061683707
0.10005381 0.24108085 0.14857979 191 11 0.061706856
0.098436452 0.23870081 0.15537311 188 11 0.061730005
0.099666655 0.24379216 0.1658567 190 11 0.061753154
0.09788543 0.24098641 0.17270601 190 11 0.061776303
0.098841064 0.24546993 0.18365611 190 11 0.061799452
0.096896328 0.24222404 0.19053201 181 11 0.061822601
0.10024305 0.25332481 0.20650695 176 11 0.06184575
0.10300381 0.26302633 0.22264704 176 11 0.061868899
0.11311565 0.2932348 0.25441101 166 11 0.061892048
0.11537591 0.30210862 0.27294663 186 11 0.061915196
0.16457067 0.44318774 0.39735261 183 11 0.061938345
0.16461845 0.44738522 0.42012084 195 11 0.061961494
0.16889311 0.46383759 0.454835 115 11 0.061984643
0.17697641 0.49169785 0.5025391 119 11 0.062007792
0.16321716 0.45639399 0.49230677 120 11 0.062030941
1.0381021 3.074861 3.3730884 166 11 0.062077239
0.81768709 2.4440434 2.8299992 232 11 0.062100388
0.90060318 2.7246292 3.3135307 168 11 0.062123537
0.84534419 2.5864329 3.3129122 171 11 0.062146686
0.79629457 2.4652698 3.3272169 171 11 0.062169835
0.7530269 2.3604023 3.3585951 171 11 0.062192984
0.71334732 2.2654319 3.4010179 173 11 0.062216133
0.66522872 2.1416504 3.396307 175 11 0.062239282
0.62090904 2.0281599 3.4013731 180 11 0.062262431
0.56727105 1.8813663 3.3422759 175 11 0.06228558
0.52431786 1.7677981 3.3314571 178 11 0.062308729
0.48570406 1.6670897 3.3387103 181 11 0.062331878
0.44696534 1.5640898 3.3363342 182 11 0.062355027
0.35311514 1.2587193 2.8739078 198 11 0.062378176
0.31591782 1.1520585 2.8180003 176 11 0.062401325
0.28539473 1.0679418 2.8073928 177 11 0.062424473
0.26536548 1.0233947 2.9009445 189 11 0.062447622
0.10962737 0.53891855 2.4564109 235 11 0.062563367
0.080033734 0.42947301 2.219883 195 11 0.062586516
0.061216835 0.3754338 2.2304647 209 11 0.062609665
0.042242564 0.31845549 2.2217426 204 11 0.062632814
0.023719477 0.26208329 2.2113929 168 11 0.062655963
0.0055427849 0.2445738 2.5946043 229 11 0.062679112
-0.02166074 0.23318461 3.3289709 183 11 0.062702261
-0.047790527 0.14955841 3.2985237 191 11 0.06272541
-0.073697627 0.068050064 3.29176 193 11 0.062748559
-0.086811885 -0.011835351 2.9039679 209 11 0.062771708
-0.10175774 -0.078183301 2.7182329 189 11 0.062794857
-0.12028689 -0.14282547 2.6706808 205 11 0.062818006
-0.13828939 -0.20586227 2.6294422 182 11 0.062841155
-0.20388354 -0.34641024 3.3479455 178 11 0.062864304
-0.2308355 -0.43390352 3.3712008 175 11 0.062887453
-0.18463057 -0.37849283 2.4639373 183 11 0.062910601
-0.21707395 -0.47090986 2.6257467 180 11 0.06293375
-0.30084866 -0.68053716 3.3065283 176 11 0.062956899
-0.32533267 -0.76664078 3.3025582 178 11 0.062980048
-0.35060734 -0.85564715 3.3057566 181 11 0.063003197
-0.37953037 -0.95484763 3.338793 179 11 0.063026346
-0.34749171 -0.90088183 2.878335 232 11 0.063049495
-0.34406114 -0.91517395 2.6861978 198 11 0.063072644
-0.3588753 -0.9761309 2.6439986 180 11 0.063095793
-0.47730538 -1.319857 3.302907 182 11 0.063118942
-0.50893688 -1.4340584 3.3377635 187 11 0.063142091
-0.44846755 -1.2895049 2.8074205 229 11 0.06316524
-0.44482037 -1.3015153 2.6540408 182 11 0.063188389
-0.46281803 -1.3757114 2.6320331 175 11 0.063211538
-0.56528842 -1.7021085 3.0545075 179 11 0.063234687
-0.50981057 -1.5601639 2.6422544 177 11 0.063257836
-0.56654185 -1.7563965 2.8029082 182 11 0.063280985
-0.57832342 -1.8173801 2.7398391 224 11 0.063304134
-0.61472195 -1.9563526 2.7875614 220 11 0.063327283
-0.60254538 -1.9430524 2.6223223 182 11 0.063350432
-0.68194348 -2.2240818 2.838753 227 11 0.063373581
-0.66989619 -2.2122805 2.6777627 176 11 0.06339673
-0.78787297 -2.6294494 3.0112979 192 11 0.063419878
-0.81701088 -2.7583048 2.9950535 176 11 0.063443027
-0.74215907 -2.5370574 2.6174917 220 11 0.063466176
-0.69670665 -2.4105728 2.3622408 201 11 0.063489325
-0.71890426 -2.5149033 2.3366735 213 11 0.063512474
-0.75002503 -2.6522191 2.3352187 211 11 0.063535623
-0.78649706 -2.8109481 2.3440177 215 11 0.063558772
-0.82282037 -2.9720609 2.3458169 212 11 0.063581921
-0.86087394 -3.1423957 2.3456955 209 11 0.06360507
-0.90435332 -3.3357403 2.3524101 216 11 0.063628219
-0.94954538 -3.5390613 2.3550768 212 11 0.063651368
-0.99838853 -3.7598848 2.3575692 221 11 0.063674517
-1.0604407 -4.034862 2.3795447 219 11 0.063697666
-1.1026008 -4.2392073 2.3477867 228 11 0.063720815
-1.0944024 -4.2529244 2.2089679 229 11 0.063743964
-1.0851974 -4.2625012 2.0711532 221 11 0.063767113
-1.0770557 -4.2760067 1.9380192 219 11 0.063790262
-0.40344879 -1.6534128 0.67207193 77 11 0.06383656
-0.39904112 -1.6532449 0.62154347 80 11 0.063859709
-0.39431626 -1.6516334 0.57151151 83 11 0.063882858
-0.38951302 -1.6495371 0.52228922 82 11 0.063906007
-0.38217777 -1.6366287 0.47113526 82 11 0.063929155
-0.067755543 -0.32053238 0.10963031 165 11 0.063975453
-0.055630419 -0.27134579 0.092065312 190 11 0.063998602
-0.055231664 -0.27260551 0.084802769 192 11 0.064021751
-0.051082645 -0.25720787 0.075515404 193 11 0.0640449
-0.052351892 -0.26581597 0.069376692 193 11 0.064068049
-0.051835269 -0.266491 0.062281072 193 11 0.064091198
-0.049579069 -0.25917184 0.054859344 193 11 0.064114347
-0.048997592 -0.25947157 0.04795349 193 11 0.064137496
0.0079323323 0.29892442 0.049389958 190 12 0.06566143
0.0072361352 0.30769885 0.057593215 191 12 0.065684579
0.0064975666 0.31624091 0.066258043 191 12 0.065707728
0.0057206419 0.32353678 0.07528311 186 12 0.065730877
0.0048580621 0.34049627 0.085911155 185 12 0.065754026
0.0038554664 0.36501971 0.098619178 175 12 0.065777175
0.0027272874 0.39007568 0.11280849 157 12 0.065800324
-0.18484448 5.522296 2.6123323 26 12 0.066031814
-0.19206794 5.3346448 2.6972704 53 12 0.066054963
-0.12861143 2.9962337 1.8409944 153 12 0.066124409
-0.13150701 2.8880363 1.8807726 192 12 0.066147558
-0.13765332 2.8536134 1.9658211 193 12 0.066170707
-0.14472249 2.8378544 2.0654035 193 12 0.066193856
-0.1520495 2.8259833 2.1708825 192 12 0.066217005
-0.15918869 2.8097086 2.2765 192 12 0.066240154
-0.16748855 2.8112338 2.4006853 171 12 0.066263303
-0.17517874 2.8006394 2.519851 168 12 0.066286452
-0.181849 2.7732594 2.6284909 166 12 0.066309601
-0.18650958 2.7171361 2.7128971 172 12 0.06633275
-0.19713461 2.7431347 2.883774 163 12 0.066355899
-0.20447774 2.7214746 3.0136282 168 12 0.066379048
-0.21197049 2.700089 3.1503081 164 12 0.066402197
-0.2191665 2.6733618 3.2878845 165 12 0.066425346
-0.22175486 2.5926828 3.3639996 171 12 0.066448495
-0.22293383 2.4991682 3.4236786 170 12 0.066471644
-0.21834718 2.3488026 3.4013996 172 12 0.066494793
-0.21233846 2.192029 3.3594744 178 12 0.066517942
-0.2111568 2.0898876 3.3930387 171 12 0.066541091
-0.20910269 1.9834716 3.4166732 175 12 0.06656424
