# .PCD v0.7 - Point Cloud Data file format
VERSION 0.7
FIELDS x y z intensity ring time
SIZE 4 4 4 4 2 4
TYPE F F F F U F
COUNT 1 1 1 1 1 1
WIDTH 923
HEIGHT 1
VIEWPOINT 0 0 0 1 0 0 0
POINTS 923
DATA ascii
-0.39582366 0.16838937 3.3181708 181 21 0.11846161
-0.49304223 0.18827301 3.3929746 178 21 0.11848476
-0.5913974 0.20741232 3.4470768 181 21 0.11850791
-0.45152929 0.14533131 2.2928233 167 21 0.11853106
-0.51357454 0.15605879 2.2972529 218 21 0.1185542
-0.871113 0.25542259 3.4566219 180 21 0.11857735
-0.9473592 0.2656135 3.3896234 181 21 0.1186005
-1.0519078 0.28359073 3.4209001 180 21 0.11862365
-1.1620027 0.3023878 3.4583199 190 21 0.1186468
-1.2382381 0.31177551 3.3931322 182 21 0.11866995
-1.3603528 0.3324967 3.4474375 187 21 0.1186931
-1.469286 0.34922704 3.4581819 185 21 0.11871625
-1.5468371 0.35798991 3.3940833 186 21 0.1187394
-1.6837974 0.38023958 3.4531627 186 21 0.11876255
-1.772108 0.39073014 3.4068975 186 21 0.11878569
-1.88064 0.4053562 3.396488 182 21 0.11880884
-2.0260365 0.42738244 3.4432676 186 21 0.11883199
-2.1189342 0.43757397 3.3955424 188 21 0.11885514
-1.8747573 0.37821817 2.8432984 195 21 0.11887829
-2.1241851 0.42062613 3.0419946 180 21 0.11890144
-2.1180301 0.41098472 2.8722577 181 21 0.11892459
-2.0885658 0.39721736 2.6848052 185 21 0.11894774
-2.1399138 0.39929524 2.6077268 183 21 0.11897089
-2.1434882 0.39237389 2.4784005 181 21 0.11899403
-2.1290295 0.3823702 2.336937 198 21 0.11901718
-2.1399651 0.37723258 2.2299402 200 21 0.11904033
-2.1397152 0.37024418 2.1171231 204 21 0.11906348
-2.1555564 0.36621398 2.0247078 208 21 0.11908663
-2.153887 0.35926691 1.9205709 212 21 0.11910978
-2.1620784 0.35411829 1.8293334 206 21 0.11913293
-2.1670322 0.34851989 1.7390229 210 21 0.11915608
-2.1695967 0.3426263 1.6503356 212 21 0.11917923
-2.1755579 0.33736339 1.5672948 209 21 0.11920238
-2.1712661 0.33057323 1.4801795 199 21 0.11922552
-0.14894995 0.016047144 0.13690867 89 21 0.11924867
-0.098330989 0.0080587259 0.10179693 98 21 0.11927182
-0.1076206 0.009162222 0.1035173 98 21 0.11929497
-0.093293644 0.0068079373 0.092453249 99 21 0.11931812
-0.10255889 0.0078778369 0.093892395 97 21 0.11934127
-0.095697828 0.0066571259 0.087501571 98 21 0.11936442
-0.088574909 0.0054386207 0.081510901 100 21 0.11938757
-0.097841822 0.0064555579 0.082432032 98 21 0.11941072
-0.098814264 0.0063364338 0.079857394 99 21 0.11943386
-0.09971939 0.0062054754 0.077258527 100 21 0.11945701
-0.092003308 0.00498144 0.072054014 101 21 0.11948016
-0.092705041 0.0048408066 0.069638491 102 21 0.11950331
-0.093343541 0.0046902173 0.067205742 106 21 0.11952646
-0.086153261 0.003605929 0.063069314 111 21 0.11954961
-0.08662045 0.0034503932 0.060812298 116 21 0.11957276
-0.094875053 0.0041818349 0.059820846 106 21 0.11959591
-0.095256276 0.0039945743 0.057335954 100 21 0.11961906
-0.078771174 0.0019639852 0.053010821 104 21 0.11964221
-0.03537051 -0.0028603158 0.047358874 144 21 0.11966535
-0.035431255 -0.0029380333 0.046445176 162 21 0.1196885
-0.0265183 -0.0039307852 0.045265246 154 21 0.11971165
-0.026525045 -0.0039926306 0.044584982 152 21 0.1197348
0.67523885 0.058808073 0.062239986 177 22 0.12243342
0.67439818 0.060355075 0.079967819 179 22 0.12245657
0.66416633 0.060944676 0.096965522 198 22 0.12247972
0.66242051 0.062371653 0.11439808 205 22 0.12250287
0.6336 0.06090755 0.12826012 129 22 0.12252602
0.63988781 0.063135728 0.14629301 130 22 0.12254917
0.60265976 0.060548231 0.15670657 131 22 0.12257232
0.42833215 0.042162485 0.13593999 112 22 0.12259547
0.41700721 0.04189828 0.14506969 113 22 0.12261862
0.43140835 0.04464148 0.16065747 117 22 0.12264176
0.42812747 0.045315813 0.17196552 114 22 0.12266491
0.39057273 0.041734233 0.17206658 115 22 0.12268806
0.34586635 0.03706627 0.16761932 119 22 0.12271121
0.31004474 0.033323862 0.16414104 124 22 0.12273436
0.28292686 0.030549487 0.16231348 130 22 0.12275751
0.24709195 0.026472989 0.15508258 124 22 0.12278066
0.17341186 0.017043317 0.12755126 100 22 0.12280381
0.17114978 0.017182425 0.13208075 100 22 0.12282696
0.16877098 0.017297855 0.1365502 100 22 0.12285011
0.15856211 0.01627294 0.13645861 100 22 0.12287325
0.16367017 0.017455887 0.14529684 100 22 0.1228964
0.15348607 0.01637652 0.14466849 142 22 0.12291955
0.16545746 0.018635932 0.15886256 132 22 0.1229427
0.16238493 0.018626155 0.16317919 125 22 0.12296585
0.15214847 0.017469484 0.16193806 122 22 0.122989
0.14209825 0.016291123 0.16024283 119 22 0.12301215
0.1390056 0.016207004 0.16394465 116 22 0.1230353
0.12995364 0.015113181 0.16221398 114 22 0.12305845
0.1268183 0.01498352 0.16559587 111 22 0.12308159
0.11732505 0.013736552 0.16253367 109 22 0.12310474
0.1141905 0.013566143 0.16558298 109 22 0.12312789
0.10504993 0.012299234 0.16186403 110 22 0.12315104
0.096190192 0.011031982 0.15774947 109 22 0.12317419
0.093195386 0.010815758 0.16024262 110 22 0.12319734
0.090138361 0.01057795 0.16265643 110 22 0.12322049
0.077206746 0.0083969114 0.15124215 112 22 0.12324364
0.074395232 0.008148103 0.15323567 112 22 0.12326679
0.071534447 0.0078801448 0.15515466 113 22 0.12328994
0.064017646 0.0066308849 0.14932752 113 22 0.12331308
0.061266486 0.0063457191 0.15097316 114 22 0.12333623
0.058475152 0.0060428437 0.15254584 115 22 0.12335938
0.051651753 0.0048270109 0.14602901 116 22 0.12338253
0.048996463 0.0045138435 0.1473484 115 22 0.12340568
0.046309497 0.0041845432 0.1485973 116 22 0.12342883
0.043592732 0.0038392385 0.14977485 119 22 0.12345198
0.037710447 0.0026897849 0.1424818 119 22 0.12347513
0.038077503 0.003101208 0.15191275 121 22 0.12349828
0.029889647 0.0012542723 0.13576031 122 22 0.12352142
0.029992856 0.0016061659 0.14513075 123 22 0.12354457
0.027380958 0.0012168657 0.14587656 123 22 0.12356772
0.02272995 0.00018714122 0.13780549 123 22 0.12359087
0.020314094 -0.00019349233 0.13835989 124 22 0.12361402
0.017886408 -0.00058623141 0.13884997 128 22 0.12363717
0.015448601 -0.0009908413 0.1392754 133 22 0.12366032
0.013002379 -0.0014070749 0.13963586 138 22 0.12368347
0.0097710928 -0.0022224733 0.13197854 151 22 0.12370662
0.0080915559 -0.0022733544 0.14016099 129 22 0.12372977
0.010901784 0.0017831842 0.25511602 80 22 0.12375291
0.0061791581 0.0019727717 0.29030505 74 22 0.12377606
-0.10278116 0.074412033 3.3528764 160 22 0.12382236
-0.18884178 0.057787623 3.3664439 182 22 0.12384551
-0.28146705 0.041669585 3.4484377 184 22 0.12386866
-0.3650223 0.023230674 3.4054661 180 22 0.12389181
-0.44768685 0.0048992126 3.3693018 180 22 0.12391496
-0.53980792 -0.013577883 3.4001431 182 22 0.12393811
-0.63520211 -0.032873701 3.436187 180 22 0.12396125
-0.5317598 -0.04026942 2.5317888 163 22 0.1239844
-0.54173642 -0.050456181 2.2954967 200 22 0.12400755
-0.7040745 -0.073859692 2.6716027 199 22 0.1240307
-0.7658025 -0.089188613 2.635025 174 22 0.12405385
-0.86428905 -0.10898869 2.714817 192 22 0.124077
-1.1075006 -0.14810655 3.1886811 192 22 0.12410015
-1.2968777 -0.18303333 3.4458718 189 22 0.1241233
-1.3263599 -0.19692519 3.2729321 193 22 0.12414645
-1.3615777 -0.21120468 3.1318097 207 22 0.1241696
-1.1317759 -0.18372484 2.4433963 174 22 0.12419274
-1.3659384 -0.22822282 2.7572873 227 22 0.12421589
-1.4591564 -0.25117376 2.7667313 219 22 0.12423904
-1.948869 -0.34303921 3.4663608 181 22 0.12426219
-2.0346689 -0.3675108 3.4134727 181 22 0.12428534
-2.1903441 -0.40498215 3.4697688 185 22 0.12430849
-2.2954431 -0.43394163 3.439199 185 22 0.12433164
-2.3598888 -0.45562226 3.3486586 177 22 0.12435479
-2.1203952 -0.41842139 2.8580534 208 22 0.12437794
-2.1581805 -0.43395242 2.7601817 192 22 0.12440109
-2.2586462 -0.46212763 2.7412083 175 22 0.12442423
-2.3889918 -0.49690253 2.7520461 178 22 0.12444738
-2.3904459 -0.50545782 2.6169717 175 22 0.12447053
-2.3866858 -0.51270092 2.483629 179 22 0.12449368
-2.3785195 -0.51877636 2.3528917 201 22 0.12451683
-2.3900707 -0.52893263 2.2469566 204 22 0.12453998
-2.3919249 -0.53685558 2.13673 207 22 0.12456313
-2.3958995 -0.54512393 2.0328872 200 22 0.12458628
-2.4032125 -0.55404782 1.9356791 202 22 0.12460943
-2.4072344 -0.56213921 1.8393759 204 22 0.12463257
-2.4080229 -0.56939232 1.7440861 205 22 0.12465572
-2.4129851 -0.57754087 1.6548169 207 22 0.12467887
-2.4150727 -0.58494204 1.5663749 202 22 0.12470202
-0.12552392 -0.037549671 0.1155646 95 22 0.12474832
-0.11940842 -0.036386322 0.10803 96 22 0.12477147
-0.12089108 -0.037089903 0.10474434 96 22 0.12479462
-0.10723148 -0.033964135 0.09450601 97 22 0.12481777
-0.10838106 -0.0345526 0.091548786 97 22 0.12484092
-0.1013185 -0.033021383 0.085335463 99 22 0.12486406
-0.11044841 -0.035681937 0.085539646 97 22 0.12488721
-0.094811976 -0.031852242 0.076932065 100 22 0.12491036
-0.1038639 -0.034520529 0.07686305 99 22 0.12493351
-0.10456572 -0.03498733 0.073991947 100 22 0.12495666
-0.096748419 -0.033140916 0.069000587 100 22 0.12497981
-0.10574678 -0.03586822 0.068191104 100 22 0.12500295
-0.097697161 -0.033918262 0.063625954 102 22 0.12502609
-0.10662873 -0.036675207 0.062325314 99 22 0.12504923
-0.13176523 -0.044052586 0.062765196 96 22 0.12507237
-0.10720965 -0.037404153 0.05641067 97 22 0.12509552
-0.040318679 -0.018457823 0.047950562 150 22 0.12511866
-0.040351618 -0.018576805 0.046801656 173 22 0.1251418
-0.031720653 -0.016160414 0.045415707 175 22 0.12516494
-0.031698354 -0.016241135 0.044499923 176 22 0.12518808
0.66533411 0.34186426 0.046946719 124 23 0.12816525
0.81183606 0.42125374 0.071432956 119 23 0.12818839
0.7481966 0.38993105 0.091463968 187 23 0.12821153
0.75382853 0.39523202 0.1142584 143 23 0.12823467
0.75801486 0.39980018 0.13736668 126 23 0.12825781
0.75465095 0.40032434 0.15975785 130 23 0.12828095
0.49924344 0.26384455 0.13578776 120 23 0.12830409
0.48081386 0.25532487 0.14719431 123 23 0.12832724
0.51535892 0.27582496 0.17068791 118 23 0.12835038
0.45974994 0.24669911 0.17151108 118 23 0.12837352
0.40378794 0.21703283 0.16888386 118 23 0.12839666
0.36348736 0.19577841 0.16820663 109 23 0.1284198
0.33107319 0.17871021 0.16804694 114 23 0.12844294
0.20477769 0.10830871 0.1273376 112 23 0.12846608
0.18796189 0.099402972 0.12686694 111 23 0.12848923
0.18577226 0.098766431 0.13240112 111 23 0.12851237
0.18346015 0.09805125 0.13787505 111 23 0.12853551
0.18102744 0.097257569 0.14328498 111 23 0.12855865
0.18539339 0.10041727 0.1527375 142 23 0.12858179
0.18261956 0.099429362 0.15821642 144 23 0.12860493
0.17972656 0.098360516 0.16361742 138 23 0.12862808
0.16427481 0.089826629 0.16001092 126 23 0.12865122
0.15490724 0.084823079 0.15994534 125 23 0.12867436
0.14568205 0.079845406 0.15940648 124 23 0.1286975
0.13661401 0.074903116 0.15840162 123 23 0.12872064
0.12771763 0.070005707 0.15693857 121 23 0.12874378
0.12495723 0.068807535 0.16070993 118 23 0.12876692
0.12211771 0.067549445 0.16440167 116 23 0.12879007
0.10849547 0.05958619 0.15659985 114 23 0.12881321
0.10578143 0.058337826 0.15979908 111 23 0.12883635
0.10300154 0.057036903 0.1629193 110 23 0.12885949
0.094940953 0.052376837 0.15941268 110 23 0.12888263
0.092192709 0.051048834 0.1622092 110 23 0.12890577
0.084488578 0.04652052 0.15806539 109 23 0.12892891
0.081793174 0.045179274 0.1605487 109 23 0.12895206
0.074478723 0.040807232 0.15579763 111 23 0.1289752
0.06794446 0.036887918 0.15149537 112 23 0.12899834
0.065432392 0.035586923 0.15347964 113 23 0.12902148
0.062882252 0.034249622 0.15538922 112 23 0.12904462
0.060295854 0.032876804 0.15722282 113 23 0.12906776
0.053977042 0.028939495 0.15117376 114 23 0.12909091
0.047988813 0.025165655 0.14481744 115 23 0.12911405
0.045672301 0.023893187 0.14619775 115 23 0.12913719
0.043331113 0.022593064 0.14750838 116 23 0.12916033
0.040966935 0.021266101 0.1487484 117 23 0.12918347
0.038581476 0.019913135 0.14991698 118 23 0.12920661
0.033596002 0.016629534 0.14260437 120 23 0.12922975
0.031365123 0.015338334 0.14354691 121 23 0.1292529
0.026924221 0.012344289 0.13585687 123 23 0.12927604
0.024859682 0.011125706 0.13659395 123 23 0.12929918
0.022784529 0.0098890485 0.1372679 124 23 0.12932232
0.020700239 0.0086351288 0.1378783 124 23 0.12934546
0.018608294 0.0073647816 0.13842468 125 23 0.1293686
0.016510187 0.0060788533 0.1389067 129 23 0.12939174
0.014407398 0.0047782119 0.13932401 135 23 0.12941489
0.011573921 0.0027125736 0.13174498 150 23 0.12943803
0.010193733 0.002136315 0.13996345 141 23 0.12946117
0.012629225 0.0071984129 0.23686695 85 23 0.12948431
0.010145968 0.0081599122 0.30806333 67 23 0.12950745
0.0042441026 0.0030529641 0.27233765 81 23 0.12953059
-0.20571561 -0.02418237 3.3658566 181 23 0.12960002
-0.283308 -0.073883392 3.4216416 180 23 0.12962316
-0.30520475 -0.10658927 2.932272 225 23 0.1296463
-0.35634851 -0.14478946 2.8349266 214 23 0.12966944
-0.42716452 -0.1907392 2.8941684 224 23 0.12969258
-0.4688786 -0.22417966 2.7681725 234 23 0.12971573
-0.66401303 -0.3318688 3.4513776 178 23 0.12973887
-0.72177249 -0.37556651 3.3619962 183 23 0.12976201
-0.61393696 -0.33161056 2.6007957 240 23 0.12978515
-0.5924167 -0.32939875 2.295476 173 23 0.12980829
-0.6447221 -0.36651129 2.293184 188 23 0.12983143
-1.0597986 -0.61025727 3.4504168 190 23 0.12985457
-0.87169635 -0.51261336 2.6456668 179 23 0.12987772
-1.199078 -0.71390766 3.3736703 189 23 0.12990086
-1.2904311 -0.77918082 3.3926291 190 23 0.129924
-1.0852255 -0.6654107 2.6855485 182 23 0.12994714
-1.1742797 -0.72836423 2.7296321 205 23 0.12997028
-1.5642192 -0.97887039 3.4107537 186 23 0.12999342
-1.656038 -1.047063 3.4071739 182 23 0.13001657
-1.7915263 -1.1435666 3.4823971 187 23 0.13003971
-1.8736371 -1.207055 3.4474142 186 23 0.13006285
-1.9513509 -1.2681891 3.4027789 186 23 0.13008599
-2.0232053 -1.3259453 3.347239 182 23 0.13010913
-2.0088758 -1.3274711 3.1578817 178 23 0.13013227
-1.9552492 -1.3024691 2.9234123 187 23 0.13015541
-2.0457296 -1.3727503 2.9072242 184 23 0.13017856
-2.4906392 -1.6818539 3.3572853 198 23 0.1302017
-2.6818848 -1.8232743 3.4365671 174 23 0.13022484
-2.8000274 -1.9163879 3.4125817 170 23 0.13024798
-2.9875493 -2.0579262 3.4618731 163 23 0.13027112
-2.8323097 -1.9641746 3.1252458 249 23 0.13029426
-3.3601315 -2.3435957 3.5177388 177 23 0.1303174
-3.4719083 -2.436415 3.4538689 179 23 0.13034055
-2.6258051 -1.8558999 2.4935043 229 23 0.13036369
-2.6719482 -1.8996936 2.4085498 220 23 0.13038683
-2.8285072 -2.0223701 2.4160717 211 23 0.13040997
-3.0050125 -2.160506 2.4293742 209 23 0.13043311
-3.1888196 -2.3052316 2.4366658 215 23 0.13045625
-3.3868661 -2.4616551 2.4422317 209 23 0.1304794
-3.6178024 -2.6435292 2.4570241 219 23 0.13050254
-3.8636537 -2.8380773 2.4661162 228 23 0.13052568
-3.9314959 -2.9034004 2.3548195 233 23 0.13054882
-3.9389446 -2.9244623 2.2084022 228 23 0.13057196
-0.23720469 -0.18477722 0.16783306 53 23 0.1305951
-0.16664168 -0.1329256 0.12547423 94 23 0.13061824
-0.16794869 -0.13457452 0.11987007 95 23 0.13064139
-0.15622176 -0.1263781 0.10901625 88 23 0.13066453
-0.15720327 -0.12774621 0.10373794 88 23 0.13068767
-0.15807043 -0.12903365 0.098419011 89 23 0.13071081
-0.17194581 -0.1403129 0.096975803 94 23 0.13073395
-0.17961031 -0.14690757 0.09299399 86 23 0.13075709
-0.1941933 -0.15892613 0.090128347 78 23 0.13078023
-0.19468707 -0.16007897 0.083548352 77 23 0.13080338
-0.1880134 -0.15562344 0.075796597 85 23 0.13082652
-0.17414875 -0.14545779 0.0675795 87 23 0.13084966
-0.085055098 -0.075686075 0.053068291 104 23 0.1308728
-0.05765605 -0.054256748 0.048374437 163 23 0.13089594
-0.057588164 -0.054444257 0.046308544 175 23 0.13091908
1.0253844 1.1967859 0.054810181 169 24 0.13467598
0.99940819 1.1718996 0.094897427 145 24 0.13469912
0.99540865 1.1728717 0.13517909 145 24 0.13472226
0.98497438 1.1661505 0.17463411 156 24 0.1347454
0.67684299 0.80204773 0.16170052 125 24 0.13476855
0.65628451 0.78120476 0.18555921 128 24 0.13479169
0.53566051 0.63886797 0.18208474 121 24 0.13481483
0.42197016 0.50356632 0.1706614 116 24 0.13483797
0.26587203 0.3150112 0.13489777 106 24 0.13486111
0.25310928 0.30090171 0.14157711 106 24 0.13488425
0.23977213 0.28594136 0.14706124 106 24 0.13490739
0.2583026 0.31042886 0.16694503 112 24 0.13493054
0.24001899 0.28919157 0.16927689 116 24 0.13495368
0.21667056 0.26138294 0.16717368 121 24 0.13497682
0.19312176 0.23303904 0.16289961 127 24 0.13499996
0.18084888 0.21870609 0.1641725 130 24 0.1350231
0.15805684 0.1908167 0.15670581 135 24 0.13504624
0.15127675 0.18315952 0.15966019 137 24 0.13506939
0.14400043 0.17478651 0.16169941 137 24 0.13509253
0.13198516 0.16018975 0.15889589 137 24 0.13511567
0.12969099 0.15810271 0.16428688 136 24 0.13513881
0.11855701 0.14442068 0.16062266 126 24 0.13516195
0.1117394 0.13627814 0.16052233 125 24 0.13518509
0.10504512 0.12821405 0.15994918 124 24 0.13520823
0.1028348 0.12604003 0.16424574 123 24 0.13523138
0.092066817 0.1123784 0.15741426 121 24 0.13525452
0.089947313 0.11022513 0.16117583 118 24 0.13527766
0.087777026 0.10798692 0.16485742 115 24 0.1353008
0.078134842 0.09552902 0.15700401 115 24 0.13532394
0.076078281 0.093348004 0.16019349 111 24 0.13534708
0.073980473 0.091093808 0.16330366 110 24 0.13537022
0.071843095 0.088767864 0.16633242 109 24 0.13539337
0.066195793 0.081500754 0.16255315 109 24 0.13541651
0.060751386 0.074431472 0.15838011 109 24 0.13543965
0.058748282 0.072173104 0.16085356 110 24 0.13546279
0.053608038 0.065396063 0.15607463 112 24 0.13548593
0.05167301 0.063166104 0.15824729 112 24 0.13550907
0.047174167 0.057178214 0.15372245 113 24 0.13553222
0.045305446 0.054979306 0.15562262 114 24 0.13555536
0.043416549 0.052734114 0.15744661 115 24 0.1355785
0.03903966 0.046735935 0.15137321 115 24 0.13560164
0.037246414 0.044562299 0.15292747 115 24 0.13562478
0.033233598 0.038963769 0.14636542 116 24 0.13564792
0.031545948 0.036879048 0.14766726 116 24 0.13567106
0.029847151 0.034761023 0.14889841 118 24 0.13569421
0.028138474 0.032611109 0.150058 119 24 0.13571735
0.026421191 0.030430745 0.15114523 120 24 0.13574049
0.023168199 0.025686886 0.14365998 121 24 0.13576363
0.020183397 0.021270081 0.13595243 123 24 0.13578677
0.019976679 0.021543885 0.14532369 123 24 0.13580991
0.018375469 0.019437931 0.14605217 128 24 0.13583305
0.015794169 0.015497272 0.13795009 143 24 0.1358562
0.013581352 0.012087463 0.13065609 152 24 0.13587934
0.012862068 0.011556904 0.1389624 135 24 0.13590248
0.014155167 0.015698247 0.18285444 96 24 0.13592562
0.015810193 0.022241063 0.26270291 74 24 0.13594876
0.013872105 0.021881819 0.30711052 59 24 0.1359719
0.0025952964 0.0032407674 0.25536442 83 24 0.13604133
-0.00082147052 -0.0011822477 0.26439631 78 24 0.13606447
-0.18950857 -0.14570051 2.7106161 191 24 0.13613389
-0.2285777 -0.20362011 2.7037501 193 24 0.13615704
-0.26903301 -0.26316538 2.7118938 197 24 0.13618018
-0.39362615 -0.40864807 3.4311099 178 24 0.13620332
-0.43879235 -0.47898117 3.3888099 182 24 0.13622646
-0.34676331 -0.39645144 2.425761 167 24 0.1362496
-0.54213887 -0.63512504 3.4020314 184 24 0.13627274
-0.59100205 -0.71094435 3.387845 179 24 0.13629588
-0.63946474 -0.78681618 3.3712428 180 24 0.13631903
-0.68749082 -0.86268526 3.3522236 184 24 0.13634217
-0.60244238 -0.77110159 2.7423403 184 24 0.13636531
-0.6553573 -0.85158175 2.7819729 229 24 0.13638845
-0.85351825 -1.1221684 3.3773863 192 24 0.13641159
-0.93372363 -1.2431414 3.4678099 186 24 0.13643473
-0.98874152 -1.33209 3.4575112 188 24 0.13645788
-1.0316247 -1.4054086 3.405019 190 24 0.13648102
-1.093623 -1.5052595 3.4125855 184 24 0.13650416
-0.81589967 -1.1372427 2.4288893 87 24 0.1365273
-0.8221314 -1.1568248 2.3235838 173 24 0.13655044
-0.86288726 -1.2246704 2.3157539 177 24 0.13657358
-0.90629607 -1.2968948 2.3118911 176 24 0.13659672
-1.3960741 -2.0082054 3.3610437 190 24 0.13661987
-1.264833 -1.8351254 2.9069827 193 24 0.13664301
-1.4711491 -2.1491199 3.2147369 213 24 0.13666615
-1.6269786 -2.393373 3.385133 176 24 0.13668929
-1.6472913 -2.440778 3.2691691 176 24 0.13671243
-1.6381701 -2.444555 3.102428 186 24 0.13673557
-1.6952288 -2.5467997 3.0616298 177 24 0.13675871
-1.6023041 -2.424139 2.7639744 186 24 0.13678186
-1.4486295 -2.2073154 2.3889208 213 24 0.136805
-1.5229857 -2.3350794 2.3924906 218 24 0.13682814
-1.6020602 -2.4713802 2.3961289 216 24 0.13685128
-1.6850636 -2.615134 2.3979125 213 24 0.13687442
-1.7724522 -2.7671645 2.3978152 219 24 0.13689756
-1.8678126 -2.933207 2.3996403 217 24 0.13692071
-1.9758017 -3.1208179 2.4075568 213 24 0.13694385
-2.0921123 -3.3235404 2.4144838 221 24 0.13696699
-2.2255857 -3.5556884 2.4285247 221 24 0.13699013
-2.2896152 -3.6790578 2.3594277 230 24 0.13701327
-2.2781894 -3.6820326 2.2139072 221 24 0.13703641
-0.7814762 -1.2785689 0.74688655 54 24 0.13705955
-0.69457465 -1.1442926 0.62972951 131 24 0.1370827
-0.70810324 -1.1729655 0.60128164 126 24 0.13710584
-3.2820871 -5.4212513 2.4285054 147 24 0.13712898
-0.76365817 -1.2783078 0.56061113 64 24 0.13715212
-3.9194565 -6.5446897 2.4668977 112 24 0.13717526
-0.21090353 -0.36632627 0.16664736 156 24 0.1371984
-0.17255555 -0.30373085 0.13560796 192 24 0.13722154
-0.16405848 -0.29100806 0.12235162 194 24 0.13724469
-0.15986505 -0.28546554 0.11177198 193 24 0.13726783
-0.15157183 -0.27282554 0.10020182 195 24 0.13729097
-0.15159358 -0.27436328 0.092017516 195 24 0.13731411
-0.15150326 -0.27571586 0.083800644 195 24 0.13733725
-0.15130152 -0.2768819 0.075556837 195 24 0.13736039
-0.1509891 -0.27786034 0.067291744 195 24 0.13738354
-0.1633873 -0.30123812 0.060201213 194 24 0.13740668
-0.13676681 -0.25574163 0.050190564 192 24 0.13742982
0.072509587 0.20779896 0.04665884 130 25 0.13896227
0.077045053 0.22405483 0.053025708 135 25 0.13898541
0.073752999 0.21536463 0.058660932 112 25 0.13900855
0.083649389 0.24938104 0.067785501 86 25 0.13903169
0.075016007 0.22325198 0.071573824 53 25 0.13905483
0.092020757 0.28143051 0.086416855 107 25 0.13907798
0.10600556 0.33056155 0.10294913 130 25 0.13910112
0.19336514 0.62745541 0.17280973 117 25 0.13912426
0.17372607 0.56643152 0.17646581 115 25 0.1391474
0.13299017 0.43204069 0.15767783 142 25 0.13917054
0.16184618 0.53579217 0.200306 165 25 0.13919368
1.0344652 3.6196263 1.3080552 206 25 0.13923997
1.0227484 3.6126351 1.4150339 207 25 0.13926311
1.0149381 3.6197238 1.5293311 217 25 0.13928625
1.00367 3.614629 1.6408851 218 25 0.13930939
0.057914361 0.1889894 0.1411138 99 25 0.13935567
0.080806606 0.2765587 0.19481501 84 25 0.13937882
0.063943692 0.21816035 0.17867777 110 25 0.1394251
0.058630865 0.20008124 0.17502888 171 25 0.13944824
0.057219084 0.19685601 0.18043898 175 25 0.13947138
0.052167084 0.1792044 0.17542012 166 25 0.13949452
0.050815493 0.1759581 0.18025832 175 25 0.13951766
0.047932807 0.16646962 0.1800735 176 25 0.13954081
0.046592079 0.16309713 0.18455923 176 25 0.13956395
0.046648104 0.16547398 0.19420165 173 25 0.13958709
0.04675943 0.16819026 0.20473322 158 25 0.13961023
0.045266148 0.16418628 0.2092457 164 25 0.13963337
0.049279287 0.18395077 0.23862454 106 25 0.13965651
0.70171672 3.0526025 3.4077041 172 25 0.13967966
0.65419549 2.8885827 3.3963003 173 25 0.1397028
0.60934037 2.732724 3.3852375 170 25 0.13972594
0.56688267 2.5841222 3.3743188 172 25 0.13974908
0.52569836 2.4378045 3.3576696 172 25 0.13977222
0.39600989 1.8639326 2.7189295 188 25 0.13979536
0.36840105 1.7673519 2.7238829 194 25 0.1398185
0.34156692 1.6722232 2.7262952 188 25 0.13984165
0.31610006 1.5816211 2.7314112 194 25 0.13986479
0.29215646 1.4966439 2.7421803 192 25 0.13988793
0.26116595 1.3715087 2.6724908 179 25 0.13991107
0.24432158 1.3202018 2.7393975 191 25 0.13993421
0.22200225 1.2372112 2.7418275 191 25 0.13995735
0.20021437 1.1549138 2.7416368 191 25 0.13998049
0.022714993 0.10514332 0.3329826 53 25 0.14002678
0.018271308 0.080717318 0.2855891 65 25 0.14004992
0.015240679 0.064141423 0.25429529 80 25 0.14007306
0.011756948 0.041811686 0.19635837 95 25 0.1400962
0.010271941 0.03345586 0.18001778 97 25 0.14011934
0.0097836601 0.034052256 0.19841984 95 25 0.14014249
0.0090826321 0.03372835 0.21692728 93 25 0.14016563
0.0080839675 0.030729538 0.22565781 92 25 0.14018877
0.0070050778 0.027453 0.23532514 90 25 0.14021191
0.0057794428 0.025937211 0.26279101 80 25 0.14023505
0.0042626453 0.02293027 0.28928283 74 25 0.14025819
0.002846123 0.016668566 0.2898089 75 25 0.14028133
0.0019806584 0.0091447094 0.26420206 80 25 0.14030448
0.0014548795 0.0029180886 0.23738733 90 25 0.14032762
0.00093319791 -0.001964451 0.22041234 93 25 0.14035076
-0.0045311637 -0.010041966 0.34317189 51 25 0.1403739
-0.014164855 -0.061493911 0.32742995 49 25 0.14053589
-0.01476427 -0.066680253 0.31695625 52 25 0.14055903
-0.014609142 -0.069312625 0.29870698 56 25 0.14058217
-0.014947157 -0.073315628 0.28816667 65 25 0.14060532
-0.013591977 -0.071297035 0.26054162 74 25 0.14062846
-0.012911155 -0.071224391 0.24260724 77 25 0.1406516
-0.011975504 -0.069922626 0.22391266 86 25 0.14067474
-0.01097962 -0.068087541 0.206361 92 25 0.14069788
-0.0097359214 -0.064992815 0.18813777 95 25 0.14072102
-0.0065458212 -0.05374267 0.15494315 100 25 0.14074416
-0.0079140309 -0.060642216 0.1614663 115 25 0.14076731
-0.0062900167 -0.055136882 0.14410153 135 25 0.14079045
-0.006613519 -0.057703763 0.14261846 149 25 0.14081359
-0.0069198394 -0.060233053 0.14106813 156 25 0.14083673
-0.0072088921 -0.062722974 0.13945162 154 25 0.14085987
-0.0085845198 -0.070227571 0.14513345 145 25 0.14088301
-0.0099832052 -0.078070834 0.15047576 132 25 0.14090616
-0.0102578 -0.080806658 0.14838201 124 25 0.1409293
-0.012704158 -0.094099641 0.15931699 120 25 0.14095244
-0.012968753 -0.097066104 0.15679453 119 25 0.14097558
-0.013210576 -0.099967845 0.15419513 121 25 0.14099872
-0.014634253 -0.10894784 0.15798485 122 25 0.14102186
-0.014842656 -0.11188175 0.15507093 123 25 0.141045
-0.016254283 -0.12121683 0.15820928 124 25 0.14106815
-0.016424179 -0.1241577 0.15497133 125 25 0.14109129
-0.017813349 -0.13380481 0.15743266 126 25 0.14111443
-0.0190518 -0.14289515 0.15883408 127 25 0.14113757
-0.020413114 -0.15293856 0.16042988 129 25 0.14116071
-0.021755323 -0.16316418 0.1615698 131 25 0.14118385
-0.023074776 -0.17355521 0.16224575 133 25 0.14120699
-0.024367899 -0.18409449 0.16245028 134 25 0.14123014
-0.025490779 -0.19391829 0.16166259 134 25 0.14125328
-0.026721047 -0.20468813 0.16092679 145 25 0.14127642
-0.027914971 -0.21555375 0.159701 143 25 0.14129956
-0.02906937 -0.22649689 0.1579802 149 25 0.1413227
-0.037552271 -0.28499395 0.17809613 103 25 0.14134584
-0.056713644 -0.41544351 0.22618888 62 25 0.14136899
-0.051529255 -0.38804209 0.20208575 93 25 0.14139213
-0.040338673 -0.31888235 0.16421635 130 25 0.14141527
-0.047164027 -0.37159485 0.17295821 126 25 0.14143841
-0.051403571 -0.40797675 0.1735971 124 25 0.14146155
-0.055506073 -0.44464543 0.1724001 126 25 0.14148469
-0.030475959 -0.27045169 0.11452806 122 25 0.14150783
-0.028875986 -0.26356119 0.10536975 134 25 0.14153098
-0.028432213 -0.26512498 0.098412588 145 25 0.14155412
-0.027959798 -0.26650682 0.091418497 150 25 0.14157726
-0.026459333 -0.25985569 0.08321894 166 25 0.1416004
-0.024839882 -0.2519753 0.075286239 157 25 0.14162354
-0.024321539 -0.25275308 0.068652391 161 25 0.14164668
-0.023779873 -0.25335714 0.062001996 162 25 0.14166982
-0.024266565 -0.26271716 0.055722181 157 25 0.14169297
-0.022630295 -0.25404212 0.048669785 155 25 0.14171611
-0.16885291 0.3681179 0.051123522 98 26 0.15090084
-0.18476805 0.39893243 0.063204594 97 26 0.15092398
-0.17021915 0.36648366 0.072298132 99 26 0.15094712
-0.1707173 0.36529094 0.082860485 97 26 0.15097027
-0.17458738 0.37097952 0.094362408 95 26 0.15099341
-0.17877886 0.37724066 0.1063924 91 26 0.15101655
-0.18284605 0.38316467 0.11884586 84 26 0.15103969
-0.17889635 0.37295327 0.12814447 88 26 0.15106283
-0.17875463 0.37042999 0.13893825 84 26 0.15108597
-0.17454576 0.35987797 0.14742438 92 26 0.15110911
-0.17806666 0.36463502 0.16032426 84 26 0.15113226
-0.16230652 0.33164167 0.16041829 94 26 0.1511554
-0.16168006 0.32842401 0.17003913 98 26 0.15117854
-0.2027418 0.40569836 0.2134297 175 26 0.15120168
-0.20893325 0.41510952 0.23158686 204 26 0.15122482
-0.21530551 0.42472437 0.25083861 191 26 0.15124796
-0.21760067 0.42646706 0.26702014 202 26 0.1512711
-0.2230293 0.43405816 0.28703645 184 26 0.15129425
-0.22108632 0.42772654 0.29972205 190 26 0.15131739
-0.22268037 0.42801571 0.316654 140 26 0.15134053
-0.23831432 0.45420468 0.35179511 112 26 0.15136367
-0.21783876 0.41372344 0.34152043 125 26 0.15138681
-1.4986626 2.7293446 2.2589743 202 26 0.1514331
-1.5087514 2.7294474 2.3877256 172 26 0.15145624
-1.5128914 2.7185471 2.5120032 176 26 0.15147938
-1.5183517 2.709743 2.6432338 173 26 0.15150252
-1.5023403 2.6627645 2.7414551 171 26 0.15152566
-1.5261362 2.6856856 2.9165092 168 26 0.1515488
-1.5278442 2.6693752 3.0579062 165 26 0.15157194
-1.5301466 2.6537724 3.2069905 171 26 0.15159509
-1.5293627 2.6325095 3.3567014 181 26 0.15161823
-1.4791185 2.5268459 3.4020288 179 26 0.15164137
-1.4227817 2.4118512 3.4304423 180 26 0.15166451
-1.3323442 2.240926 3.3702953 176 26 0.15168765
-1.2845806 2.1428154 3.4092271 176 26 0.15171079
-1.2362996 2.0447047 3.444762 181 26 0.15173393
-1.1542505 1.8924501 3.3811297 181 26 0.15175708
-1.1061833 1.7969011 3.4082863 182 26 0.15178022
-0.91483748 1.4733837 2.976862 225 26 0.15180336
-0.8303616 1.3243937 2.8525617 184 26 0.1518265
-0.78850746 1.2442263 2.8614359 177 26 0.15184964
-0.7463882 1.1644057 2.8666339 177 26 0.15187278
-0.71459359 1.1010884 2.9099798 177 26 0.15189593
-0.76804 1.1662217 3.3157444 179 26 0.15191907
-0.73537773 1.100317 3.3836179 186 26 0.15194221
-0.69960755 1.0300111 3.4423652 184 26 0.15196535
-0.65258282 0.94382262 3.4481006 185 26 0.15198849
-0.39580947 0.56499302 2.2824097 191 26 0.15201163
-0.37055254 0.51709032 2.3169553 136 26 0.15203477
-0.50772542 0.6849001 3.4254766 179 26 0.15205792
-0.45868057 0.59941131 3.4035597 184 26 0.15208106
-0.41114452 0.51682818 3.3866875 184 26 0.1521042
-0.31781688 0.38165888 2.9522004 226 26 0.15212734
-0.32083052 0.35984457 3.3816676 182 26 0.15215048
-0.26971862 0.27648991 3.3055143 186 26 0.15217362
-0.23604143 0.21038969 3.4456429 181 26 0.15219676
-0.18276836 0.12795141 3.3117008 184 26 0.15221991
-0.00028042929 0.0020421098 0.23740385 90 26 0.15226619
0.0023253844 -0.0022851049 0.23738733 87 26 0.15228933
0.0048821843 -0.0075342059 0.25521424 77 26 0.15231247
0.0068792482 -0.0057038316 0.16715446 99 26 0.15233561
0.0079223057 -0.0058247359 0.14002502 158 26 0.15235876
0.0086027384 -0.005923375 0.12288633 143 26 0.1523819
0.010154992 -0.0089169526 0.13150838 139 26 0.15240504
0.011894677 -0.012130363 0.13901713 135 26 0.15242818
0.013224947 -0.01420429 0.13855128 132 26 0.15245132
0.014556692 -0.016261851 0.13802096 130 26 0.15247446
0.015888942 -0.018301632 0.13742654 129 26 0.1524976
0.017220728 -0.020322233 0.13676843 129 26 0.15252075
0.018551068 -0.022322275 0.1360471 129 26 0.15254389
0.019878982 -0.024300387 0.13526301 130 26 0.15256703
0.022668228 -0.029047148 0.14284642 129 26 0.15259017
0.024112636 -0.031159189 0.14185339 128 26 0.15261331
0.025551161 -0.033242881 0.14079364 128 26 0.15263645
0.026982728 -0.035296835 0.1396679 127 26 0.1526596
0.030364782 -0.040823728 0.14653209 126 26 0.15268274
0.031900916 -0.042985428 0.14516911 127 26 0.15270588
0.033425979 -0.045110397 0.14373712 127 26 0.15272902
0.034938816 -0.047197219 0.14223714 127 26 0.15275216
0.038878068 -0.053416189 0.14826255 126 26 0.1527753
0.043038141 -0.059912466 0.15396421 124 26 0.15279844
0.044740207 -0.062188175 0.15199848 122 26 0.15282159
0.046422765 -0.064413495 0.14995906 121 26 0.15284473
0.050664734 -0.070842676 0.15411086 119 26 0.15286787
0.055419017 -0.07802476 0.15869369 118 26 0.15289101
0.05724407 -0.080357455 0.15615183 119 26 0.15291415
0.059041217 -0.082626946 0.15353344 122 26 0.15293729
0.064150646 -0.090177402 0.15726359 122 26 0.15296043
0.069439866 -0.097921208 0.1605867 123 26 0.15298358
0.071351439 -0.1002438 0.157407 124 26 0.15300672
0.076876938 -0.10821181 0.16005921 124 26 0.15302986
0.082144968 -0.11568699 0.16164048 126 26 0.153053
0.084122382 -0.11798756 0.15788877 128 26 0.15307614
0.089995883 -0.12626 0.1594182 130 26 0.15309928
0.096006125 -0.13464996 0.16049062 133 26 0.15312243
0.10214428 -0.14314269 0.16109802 134 26 0.15314557
0.10418884 -0.14536297 0.15645762 145 26 0.15316871
0.11047018 -0.15392557 0.15631473 136 26 0.15319185
0.10371549 -0.14294101 0.14257994 106 26 0.15321499
0.10549415 -0.14475165 0.13792643 106 26 0.15323813
0.11174585 -0.15314899 0.13716127 107 26 0.15326127
0.11808111 -0.16158129 0.13590951 106 26 0.15328442
0.11980915 -0.16320123 0.13064273 105 26 0.15330756
0.17264202 -0.23899919 0.16094981 130 26 0.1533307
0.19845396 -0.27497146 0.16828313 129 26 0.15335384
0.22909392 -0.3175008 0.17591433 125 26 0.15337698
0.25151303 -0.34784067 0.17618334 124 26 0.15340012
0.26369452 -0.36331636 0.16946594 137 26 0.15342326
0.27646947 -0.37947324 0.16204877 132 26 0.15344641
0.27908692 -0.38117754 0.14972402 160 26 0.15346955
0.27638698 -0.37542421 0.13560104 170 26 0.15349269
0.27859619 -0.37656429 0.12337226 127 26 0.15351583
0.28062215 -0.37743777 0.11108942 127 26 0.15353897
0.28771353 -0.38528144 0.099789046 128 26 0.15356211
0.28939763 -0.38562849 0.087189093 128 26 0.15358526
0.29088849 -0.38570449 0.074559875 118 26 0.1536084
0.52156538 -0.69689322 0.075830907 169 26 0.15363154
0.31946295 -0.42040703 0.049679972 166 26 0.15365468
-0.3921867 0.36672452 0.055038549 180 27 0.15624642
-0.39272064 0.36547089 0.069082923 196 27 0.15626957
-0.39297903 0.36396977 0.083110459 204 27 0.15629271
-0.38630062 0.35623434 0.096229762 206 27 0.15631585
-0.38601014 0.35427773 0.10996073 201 27 0.15633899
-0.38544631 0.35208395 0.12364683 194 27 0.15636213
-0.39123982 0.3555316 0.13886012 180 27 0.15638527
-0.39598674 0.35800833 0.15427099 170 27 0.15640841
-0.40114492 0.36080611 0.17024365 169 27 0.15643156
-0.4190833 0.37471971 0.19113161 156 27 0.1564547
-0.46771938 0.41515145 0.22522339 160 27 0.15647784
-1.8363203 1.5963912 0.81716436 206 27 0.15650098
-1.8372104 1.589187 0.88645822 205 27 0.15652412
-1.8358926 1.5800686 0.95571303 203 27 0.15654726
-1.8337729 1.5702565 1.0255524 204 27 0.1565704
-1.8419987 1.5692008 1.1024015 201 27 0.15659355
-1.8366671 1.5566132 1.1729889 200 27 0.15661669
-1.8413974 1.5524698 1.2512709 199 27 0.15663983
-1.8442621 1.5466833 1.3303629 198 27 0.15666297
-1.8398676 1.5347971 1.4062364 195 27 0.15668611
-1.8389505 1.5257592 1.4865382 195 27 0.15670925
-1.8360542 1.5150377 1.5674194 194 27 0.1567324
-1.8426901 1.5120435 1.658893 203 27 0.15675554
-1.8469105 1.5069418 1.751556 202 27 0.15677868
-1.8486581 1.4997085 1.8453037 202 27 0.15680182
-1.8478775 1.4903218 1.9400284 199 27 0.15682496
-1.8493003 1.4825764 2.0407746 197 27 0.1568481
-1.8537605 1.4770867 2.1492326 195 27 0.15687124
-1.8545164 1.4684826 2.2583423 203 27 0.15689439
-1.8672403 1.469061 2.3875661 181 27 0.15691753
-1.8661536 1.4585831 2.5058274 178 27 0.15694067
-1.875923 1.4562787 2.6452043 175 27 0.15696381
-1.8444065 1.4219805 2.7328761 177 27 0.15698695
-1.8640181 1.4266598 2.9018061 189 27 0.15701009
-1.8692132 1.4199218 3.0592563 169 27 0.15703323
-1.8777907 1.415307 3.2330787 171 27 0.15705638
-1.8685932 1.3969786 3.3877709 182 27 0.15707952
-1.7953198 1.3310959 3.432596 178 27 0.15710266
-1.6874768 1.2404218 3.4075243 172 27 0.1571258
-1.5925733 1.1600314 3.4007506 175 27 0.15714894
-1.5329616 1.105675 3.4659739 176 27 0.15717208
-1.4023646 1.0012835 3.3659601 186 27 0.15719523
-1.1596944 0.8198238 2.9664662 185 27 0.15721837
-1.18541 0.82731843 3.2274463 201 27 0.15724151
-1.1641668 0.80149531 3.3856716 185 27 0.15726465
-1.0888343 0.73880029 3.3962953 186 27 0.15728779
-1.0289545 0.68681985 3.4548681 186 27 0.15731093
-0.93421376 0.61241335 3.3939588 180 27 0.15733407
-0.85961556 0.5518223 3.3961096 180 27 0.15735722
-0.79959452 0.50075918 3.4562714 181 27 0.15738036
-0.47617424 0.29226187 2.2919102 220 27 0.1574035
-0.43336472 0.25689259 2.3222692 136 27 0.15742664
-0.57682329 0.32367766 3.4496675 182 27 0.15744978
-0.5028953 0.26595631 3.4399843 180 27 0.15747292
-0.39473611 0.19276924 3.1564584 197 27 0.15749606
-0.34903198 0.15005748 3.3414929 182 27 0.15751921
-0.28813204 0.099397331 3.4376473 185 27 0.15754235
-0.21236134 0.044137597 3.3652332 180 27 0.15756549
-0.1255516 -0.0070758057 2.9736118 217 27 0.15758863
-0.00094065198 0.0010471006 0.25540057 82 27 0.15761177
0.0034384271 -0.0028758068 0.2723535 75 27 0.15763491
0.0079062628 -0.0055630677 0.25518379 77 27 0.15765806
0.0077647883 -0.0011358085 0.14020823 140 27 0.1576812
0.0087456359 -0.0012101536 0.12308423 149 27 0.15770434
0.011141906 -0.0032924272 0.13178118 141 27 0.15772748
0.012989438 -0.0046212967 0.13146567 137 27 0.15775062
0.015828354 -0.0069606495 0.13896245 134 27 0.15777376
0.017839003 -0.0083821127 0.13848852 131 27 0.1577969
0.0198447 -0.0097877309 0.13795015 129 27 0.15782005
0.021844018 -0.011176563 0.13734776 129 27 0.15784319
0.023835527 -0.012547674 0.13668171 129 27 0.15786633
0.025817808 -0.013900158 0.1359525 129 27 0.15788947
0.030033097 -0.017163306 0.14366005 129 27 0.15791261
0.029749 -0.016545661 0.13430659 130 27 0.15793575
0.031695083 -0.017836945 0.13339102 129 27 0.15795889
0.036419574 -0.021401158 0.14065652 128 27 0.15798204
0.041488472 -0.025177285 0.14766736 127 27 0.15800518
0.0437431 -0.026630202 0.14636552 126 27 0.15802832
0.045975104 -0.028054016 0.14499386 127 27 0.15805146
0.048182864 -0.029447826 0.14355333 127 27 0.1580746
0.050364774 -0.030810757 0.1420449 126 27 0.15809774
0.056367144 -0.035106666 0.14804618 126 27 0.15812089
0.06267745 -0.039576039 0.15372257 124 27 0.15814403
0.065104425 -0.041042097 0.15174755 122 27 0.15816717
0.067494199 -0.042468656 0.14969903 121 27 0.15819031
0.069844984 -0.043854855 0.14757842 120 27 0.15821345
0.080966666 -0.051721841 0.1583802 119 27 0.15823659
0.083527476 -0.053193498 0.15582867 119 27 0.15825973
0.086038463 -0.054616928 0.15320085 121 27 0.15828288
0.093619235 -0.0597031 0.15690114 123 27 0.15830602
0.10143817 -0.064900197 0.16019355 123 27 0.15832916
0.10407361 -0.066328868 0.15700406 124 27 0.1583523
0.10664502 -0.067700118 0.15373746 126 27 0.15837544
0.11988764 -0.07659667 0.16117585 128 27 0.15839858
0.12257425 -0.0779792 0.15741426 137 27 0.15842173
0.13112836 -0.083443575 0.15891051 134 27 0.15844487
0.13378355 -0.084755845 0.15480538 126 27 0.15846801
0.12466404 -0.077938065 0.14127687 103 27 0.15849115
0.12692824 -0.079005934 0.13739805 103 27 0.15851429
0.1291116 -0.080008917 0.13345556 103 27 0.15853743
0.13121243 -0.080946602 0.12945212 103 27 0.15856057
0.13322903 -0.081818581 0.12539046 103 27 0.15858372
0.17403166 -0.10867191 0.14395636 112 27 0.15860686
0.20977707 -0.1318583 0.15670557 135 27 0.15863
0.24014463 -0.15122592 0.1641722 133 27 0.15865314
0.26328146 -0.16561615 0.16617802 129 27 0.15867628
0.28751191 -0.18056618 0.16717327 128 27 0.15869942
0.31838331 -0.19968246 0.1692764 128 27 0.15872256
0.34961641 -0.21882521 0.16955583 129 27 0.15874571
0.33820373 -0.21025683 0.15395108 121 27 0.15876885
0.34101817 -0.21090315 0.14349405 126 27 0.15879199
0.34360406 -0.21139295 0.13296919 120 27 0.15881513
0.51428437 -0.31854478 0.1606655 154 27 0.15883827
0.50994474 -0.31407335 0.14333196 142 27 0.15886141
0.56473672 -0.34676608 0.13611874 136 27 0.15888456
0.64159602 -0.39288107 0.12851438 117 27 0.1589077
0.9124999 -0.55902147 0.13572752 98 27 0.15893084
1.0573888 -0.64551705 0.11752307 131 27 0.15895398
1.052541 -0.63905108 0.084788941 147 27 0.15897712
0.39336458 -0.2326946 0.0474886 174 27 0.15900026
-0.039041262 0.021305544 0.045507386 151 28 0.16169214
-0.039048418 0.021195976 0.046658006 139 28 0.16171528
-0.08781027 0.0386522 0.051715594 201 28 0.16173843
-2.0878978 0.74792057 0.32897228 214 28 0.16178471
-2.098732 0.74606407 0.38966072 217 28 0.16180785
-2.0996389 0.74067414 0.44943288 217 28 0.16183099
-2.098093 0.73442036 0.50918639 217 28 0.16185413
-2.0959356 0.7279532 0.56926131 215 28 0.16187727
-2.092226 0.7209537 0.62943488 216 28 0.16190042
-2.0951362 0.71619779 0.69218969 214 28 0.16192356
-2.0954542 0.71053463 0.75509882 211 28 0.1619467
-2.0949674 0.70457745 0.81869847 210 28 0.16196984
-2.0927429 0.69802111 0.88265651 209 28 0.16199298
-2.1037052 0.69576311 0.95337188 207 28 0.16201612
-2.0969145 0.68764454 1.0178946 205 28 0.16203927
-2.0969374 0.6817165 1.0868378 202 28 0.16206241
-2.0940967 0.6748296 1.155893 202 28 0.16208555
-2.096786 0.66965687 1.2296673 200 28 0.16210869
-2.1046693 0.66603929 1.3087144 209 28 0.16213183
-2.1035042 0.65950632 1.3847373 208 28 0.16215497
-2.0991602 0.65193492 1.460909 206 28 0.16217811
-2.1066544 0.64791578 1.5477918 205 28 0.16220126
-2.0972486 0.63867646 1.6254071 203 28 0.1622244
-2.1059573 0.63480347 1.7197835 201 28 0.16224754
-2.103888 0.62759411 1.8093272 198 28 0.16227068
-2.1060734 0.6215266 1.9062486 205 28 0.16229382
-2.0983734 0.61246645 1.9983703 204 28 0.16231696
-2.0993638 0.60579789 2.1028767 202 28 0.1623401
-2.1033545 0.59981483 2.2156823 197 28 0.16236325
-2.0964394 0.59059644 2.3227417 195 28 0.16238639
-2.1198912 0.58958417 2.4700227 181 28 0.16240953
-2.1210012 0.58212775 2.6002579 177 28 0.16243267
-2.1059911 0.57011032 2.7181053 179 28 0.16245581
-2.1130815 0.56376386 2.8723278 183 28 0.16247895
-2.1184013 0.5565967 3.0350327 175 28 0.1625021
-1.9469521 0.50390619 2.9466221 199 28 0.16252524
-2.1224241 0.53938049 3.3880186 189 28 0.16254838
-2.0350637 0.50808173 3.4373147 179 28 0.16257152
-1.8897777 0.46312228 3.3838425 175 28 0.16259466
-1.7858386 0.42884922 3.3949668 180 28 0.1626178
-1.6985532 0.39893189 3.4346979 181 28 0.16264094
-1.5650295 0.35893726 3.3755326 186 28 0.16266409
-1.49567 0.33388054 3.4482455 183 28 0.16268723
-1.3770763 0.29848289 3.4059443 186 28 0.16271037
-1.2739303 0.26703086 3.3921828 186 28 0.16273351
-1.1988328 0.24167357 3.4504142 186 28 0.16275665
-1.0833521 0.20889232 3.3890352 179 28 0.16277979
-0.98927867 0.18079902 3.3831422 181 28 0.16280293
-0.91433233 0.15635966 3.4419596 181 28 0.16282608
-0.54623824 0.088169411 2.3014839 226 28 0.16284922
-0.48763627 0.070906207 2.3072832 155 28 0.16287236
-0.64573723 0.077810355 3.4517901 181 28 0.1628955
-0.54689103 0.051752008 3.3895042 185 28 0.16291864
-0.45864111 0.027392691 3.3757749 183 28 0.16294178
-0.37929004 0.0036157819 3.4301283 182 28 0.16296493
-0.29132512 -0.019956123 3.4126749 186 28 0.16298807
-0.20273654 -0.042478483 3.3658562 181 28 0.16301121
-0.099456429 -0.053766921 2.8420265 214 28 0.16303435
-0.00050257047 0.00069087127 0.24640803 86 28 0.16305749
0.0053886068 -0.0024842531 0.29931843 68 28 0.16308063
0.010093153 -0.0023219234 0.25515103 79 28 0.16310377
0.0073962202 0.0021970139 0.13221137 151 28 0.16312692
0.0096177356 0.0016475561 0.13200818 143 28 0.16315006
0.011835557 0.0011085091 0.13174501 139 28 0.1631732
0.01517878 5.1123407e-05 0.13932405 136 28 0.16319634
0.01758601 -0.00051330007 0.13890675 132 28 0.16321948
0.019984128 -0.0010652429 0.13842472 130 28 0.16324262
0.022371452 -0.0016043583 0.13787834 129 28 0.16326576
0.024746299 -0.0021303142 0.13726796 129 28 0.16328891
0.029502092 -0.0034917877 0.14522782 128 28 0.16331205
0.029451888 -0.00314149 0.13585693 129 28 0.16333519
0.031779315 -0.0036261184 0.13505724 130 28 0.16335833
0.037140079 -0.005082374 0.14260446 129 28 0.16338147
0.039643101 -0.0055810087 0.14159468 129 28 0.16340461
0.04560288 -0.0071338811 0.14874852 127 28 0.16342776
0.048266359 -0.0076399324 0.14750849 126 28 0.1634509
0.050899513 -0.0081278319 0.14619787 126 28 0.16347404
0.053500473 -0.0085973376 0.14481753 127 28 0.16349718
0.056067403 -0.0090482421 0.14336847 127 28 0.16352032
0.058598485 -0.0094803441 0.14185163 126 28 0.16354346
0.065800846 -0.011182932 0.1478287 125 28 0.1635666
0.073352888 -0.012928954 0.15347975 124 28 0.16358975
0.076148354 -0.013363183 0.15149547 122 28 0.16361289
0.078894161 -0.013774944 0.14943786 120 28 0.16363603
0.086448021 -0.015413397 0.15353914 119 28 0.16365917
0.089249365 -0.015802234 0.15120582 118 28 0.16368231
0.097816795 -0.017621094 0.15550433 120 28 0.16370545
0.10067173 -0.017983621 0.15286709 122 28 0.16372859
0.10962696 -0.019817023 0.15653749 123 28 0.16375174
0.11884333 -0.02166244 0.15979914 124 28 0.16377488
0.12181359 -0.021982273 0.15659989 126 28 0.16379802
0.12470258 -0.022273228 0.15332383 128 28 0.16382116
0.14035366 -0.025487656 0.16070996 130 28 0.1638443
0.14335196 -0.025745057 0.15693858 139 28 0.16386744
0.13286152 -0.022973608 0.14305735 163 28 0.16389059
0.14263311 -0.024746401 0.14461651 109 28 0.16391373
0.13785806 -0.023298027 0.13587138 109 28 0.16393687
0.14770627 -0.025029099 0.13690867 105 28 0.16396001
0.1500943 -0.025126256 0.13295841 103 28 0.16398315
0.14465261 -0.023574527 0.12462919 103 28 0.16400629
0.16153415 -0.026675131 0.12853236 103 28 0.16402943
0.22640485 -0.039486159 0.154983 136 28 0.16405258
0.26056933 -0.045768265 0.16326626 135 28 0.16407572
0.27993938 -0.048933677 0.16324332 133 28 0.16409886
0.29857633 -0.051859751 0.16190867 140 28 0.164122
0.34230009 -0.05955204 0.16875599 154 28 0.16414514
0.37072608 -0.064102076 0.16804644 172 28 0.16416828
0.38994211 -0.066776685 0.16303967 148 28 0.16419142
0.36835685 -0.061773472 0.14583956 155 28 0.16421457
0.38819706 -0.064482339 0.14028986 126 28 0.16423771
0.44936663 -0.074571453 0.14283293 140 28 0.16426085
0.57962811 -0.096682079 0.15534948 148 28 0.16428399
0.582524 -0.095747218 0.13993609 149 28 0.16430713
0.78323978 -0.12910171 0.15159999 132 28 0.16433027
0.67335123 -0.10838217 0.1184041 165 28 0.16435342
1.4458187 -0.23682685 0.16457276 206 28 0.16437656
0.65115744 -0.10137787 0.081180431 141 28 0.1643997
0.62648022 -0.095742017 0.063160256 200 28 0.16442284
0.47888964 -0.070435569 0.046081994 188 28 0.16444598
-0.03527344 0.0048107556 0.045415781 167 29 0.16809559
-0.035243798 0.0047283121 0.046330936 157 29 0.16811873
-0.04414843 0.0041475836 0.047950648 121 29 0.16814187
-0.11354724 3.4339341e-06 0.056410883 96 29 0.16816501
-0.10428512 0.00029128502 0.058199085 97 29 0.16818815
-0.09501525 0.0006238448 0.059510954 105 29 0.1682113
-0.086737484 0.00093578472 0.060529511 111 29 0.16823444
-0.094093472 0.00022572614 0.06445054 108 29 0.16825758
-0.093535535 3.5579662e-05 0.066900671 105 29 0.16828072
-0.092913397 -0.00014817486 0.069335446 103 29 0.16830386
-0.10083292 -0.00097308471 0.074308194 99 29 0.168327
-0.10001262 -0.0011589365 0.076932184 98 29 0.16835015
-0.10758081 -0.0020156528 0.082536861 97 29 0.16837329
-0.11491521 -0.0028928767 0.088559426 96 29 0.16839643
-0.10542839 -0.0023738579 0.088106282 96 29 0.16841957
-0.10424349 -0.0025383818 0.090847112 97 29 0.16844271
-0.11916931 -0.0041569951 0.10130189 96 29 0.16846585
-0.12472963 -0.0049842303 0.10803007 94 29 0.16848899
-0.12301257 -0.0051473668 0.11127217 95 29 0.16851214
-0.13672723 -0.006823631 0.12346446 94 29 0.16853528
-2.3236229 -0.22829969 1.4744575 180 29 0.16855842
-2.321696 -0.23446096 1.5590041 184 29 0.16858156
-2.3316643 -0.24197242 1.6546344 194 29 0.1686047
-2.3309391 -0.24847113 1.7465476 202 29 0.16862784
-2.3332796 -0.2554217 1.8444058 201 29 0.16865098
-2.332835 -0.26218742 1.9441922 199 29 0.16867413
-2.3287356 -0.26865312 2.045198 197 29 0.16869727
-2.3334668 -0.27631301 2.1586699 194 29 0.16872041
-2.3338165 -0.28362083 2.2737651 201 29 0.16874355
-2.3486547 -0.2929602 2.4094143 179 29 0.16876669
-2.3572607 -0.30178213 2.5466402 178 29 0.16878983
-2.3549421 -0.30942047 2.679991 173 29 0.16881298
-2.3362832 -0.31504413 2.802011 190 29 0.16883612
-2.3508723 -0.32551259 2.9722447 180 29 0.16885926
-2.3629272 -0.33603582 3.151459 168 29 0.1688824
-2.3625116 -0.34515142 3.3268213 169 29 0.16890554
-2.2906151 -0.34373423 3.4103637 178 29 0.16892868
-2.1777592 -0.3357273 3.4328804 179 29 0.16895182
-1.6919981 -0.26692289 2.8356392 229 29 0.16897497
-1.6270944 -0.26412693 2.8950379 235 29 0.16899811
-1.7797698 -0.29849216 3.362298 181 29 0.16902125
-1.2309479 -0.21100762 2.4909933 186 29 0.16904439
-1.1214631 -0.19813997 2.4271545 172 29 0.16906753
-1.4608725 -0.26931259 3.3728743 187 29 0.16909067
-1.2572953 -0.2394903 3.1260982 185 29 0.16911381
-1.2692511 -0.25146645 3.4048095 190 29 0.16913696
-1.1550705 -0.23803195 3.3629889 180 29 0.1691601
-0.854348 -0.18249914 2.7224202 222 29 0.16918324
